# .PCD v0.7 - Point Cloud Data file format
VERSION 0.7
FIELDS x y z
SIZE 4 4 4
TYPE F F F
COUNT 1 1 1
WIDTH 1609
HEIGHT 1
VIEWPOINT 0 0 0 1 0 0 0
POINTS 1609
DATA ascii
230.85753 1495.9489 1300.5028
234.24806 1464.4839 1318.6545
444.25891 1483.2659 1385.9723
417.67053 1415.0941 2956.5962
1075.7201 1456.2454 1852.9546
1188.8502 1453.9464 2955.9827
1244.0703 1479.7706 2777.3809
1043.3564 1469.7706 1778.7321
1049.4437 1495.3545 2194.489
732.63867 1422.2445 1470.0151
961.26831 1479.7706 2908.2061
952.44092 1421.7979 2531.6931
1004.902 1450.0253 1165.4016
1143.0718 1412.2523 2493.7632
966.45135 1465.7706 1703.0996
980.26831 1437.9808 1823.6663
1050.5667 1479.7706 1439.4575
274.84592 1479.4313 3038.1147
845.36719 1454.3527 2735.0808
186.08612 1466.8925 2918.9585
970.20679 1434.9628 1241.4448
1106.2698 1471.7706 1972.0887
1041.0261 1479.7706 1420.0142
1225.0756 1481.1124 2585.1694
308.93304 1479.7706 1279.6901
446.76495 1424.6108 1308.5269
1130.7567 1413.3203 2376.594
103.89958 1447.6432 1340.5414
207.63284 1415.692 3051.0688
408.4408 1476.7374 2964.2427
503.72186 1465.7706 1380.2028
1078.1128 1464.9917 1950.4045
26.346802 1406.55 1268.2518
1063.2191 1465.7706 2364.3633
791.71442 1422.203 2780.3784
1235.3789 1439.0811 2759.7336
752.60699 1434.7278 1535.1814
509.37415 1493.7313 2932.6057
1121.6575 1429.2156 1601.212
750.3634 1402.8274 1272.5953
1095.9685 1454.5671 1356.7977
195.16478 1443.9158 1334.9711
1131.2297 1479.7706 2952.6934
368.59732 1466.8092 3033.543
1108.7548 1435.7527 2243.7927
1025.8374 1435.8513 2354.2625
975.44574 1445.2572 1671.2517
1262.8074 1424.0309 2935.6409
727.69202 1471.7706 2950.8972
1027.2642 1455.7252 2964.9221
1076.262 1485.382 1987.8068
592.93445 1462.353 1354.1351
1172.5129 1428.7533 2085.0696
45.323425 1479.7706 3032.606
772.7829 1479.7706 1218.7736
246.59784 1454.1995 3055.0173
1088.7234 1436.219 2053.2068
120.05478 1460.4672 3068.3176
751.43927 1417.8708 2900.4751
861.62524 1458.1759 1638.7371
759.40723 1417.0637 1263.6007
458.97229 1448.6588 2904.7817
73.174103 1469.7706 2986.3179
1044.1594 1478.8521 2428.7603
692.72675 1430.585 1442.1459
1102.7529 1484.4912 2573.2974
253.45795 1473.5454 2977.3005
102.77379 1452.5751 2989.6934
60.260056 1469.7706 2909.1411
647.56915 1440.9047 1462.6641
1072.127 1479.7706 1718.1589
441.68152 1470.7316 1344.6642
1077.1028 1479.7706 1467.6776
482.79095 1479.7706 1239.7006
823.4964 1479.7706 1284.4591
1254.9882 1424.3562 2869.7693
1019.4357 1400.2373 1917.6011
664.68811 1459.8716 3011.0745
269.06812 1479.7706 1277.0596
962.31177 1499.4008 2514.094
1136.6969 1407.8855 2509.645
1146.2919 1471.7706 2085.8276
1144.7352 1464.1542 2508.8601
87.858368 1401.0538 3071.7017
1007.2917 1471.4391 2896.8079
1047.2571 1448.7529 2046.0618
1110.7871 1431.1992 1574.3213
103.88257 1412.4166 1344.5652
770.71448 1434.5946 2919.49
230.24905 1428.3414 1254.865
312.0838 1479.2777 1251.1792
948.91577 1479.7706 1190.7234
1215.9706 1479.1547 2614.4077
903.9577 1455.0837 1625.327
884.31287 1498.4795 1385.7142
698.60858 1438.7422 2927.0686
936.75415 1479.7706 2888.553
449.29712 1479.6049 1289.2025
368.10931 1465.7706 1343.5917
1257.0051 1464.5933 2888.9592
11.352631 1464.692 2878.2886
1193.392 1424.7223 2360.2542
721.45276 1469.7706 2843.8394
19.543457 1469.7706 2930.9839
605.88275 1418.0809 1399.5764
1018.7725 1497.259 1915.2877
1096.7665 1479.7706 1898.0024
1145.7251 1471.7659 1983.0458
968.11328 1478.6335 2968.7651
1080.4384 1411.6392 1974.3806
52.10141 1499.9469 2894.677
906.7489 1436.8193 2665.5254
896.2699 1402.3077 1257.26
1083.0955 1409.7866 1310.8538
442.13611 1411.0662 2954.0249
535.39038 1445.5538 2881.9045
402.24469 1430.1029 3038.6582
415.27032 1420.9421 1311.837
962.70874 1479.7706 2775.6089
1088.3827 1469.6443 2955.8159
328.98193 1465.7706 1346.7109
931.84753 1479.7706 2857.3301
226.10065 1438.1272 2972.7092
459.82391 1467.8981 2961.5386
1050.6158 1434.7592 2075.7222
346.89157 1466.7238 2923.5713
1215.2633 1402.7257 2491.8123
1011.8281 1479.7706 2946.29
115.87521 1472.8275 1386.4683
46.914551 1413.5604 2890.1472
1229.2798 1466.9945 2630.0554
23.578773 1468.912 1411.9155
225.09633 1425.4878 1319.759
164.05847 1469.7706 1356.8279
876.10822 1440.4019 1593.3998
951.93732 1479.7706 1227.5797
1208.9639 1469.5885 2443.6282
674.24414 1494.4862 1200.1552
177.24678 1414.0112 2921.0518
111.97772 1498.5356 2906.9006
10.402924 1469.7706 2921.4089
22.647949 1471.9641 2927.6592
783.34253 1451.3601 2990.5593
812.38983 1492.2458 1409.3434
49.268799 1476.6383 3001.8718
1088.3279 1471.7706 1583.6627
1119.2283 1441.4521 1654.6342
92.871048 1446.627 1333.6565
936.45276 1426.9282 1172.5959
1046.4268 1428.3583 2039.6932
594.06482 1466.9867 1364.8904
1028.9805 1439.0769 1484.7914
910.85309 1494.354 1634.0443
108.29596 1448.2456 2989.1128
1046.4789 1448.3269 1152.9875
1137.2057 1423.7286 1825.6775
70.894394 1468.179 1264.2719
798.44751 1420.4496 2997.0156
131.9351 1414.9244 3067.0691
487.5744 1438.1342 1292.1715
1112.6914 1474.4061 1556.916
229.21054 1443.5167 1319.3267
65.203156 1467.6152 2895.3132
916.30603 1471.7706 2921.5769
952.45093 1444.8495 1677.6906
1188.0624 1471.7706 2539.7522
843.95435 1407.0685 1557.7837
303.78415 1471.7706 2991.4736
1147.2715 1470.2697 2499.2463
408.80383 1412.1333 1312.5167
501.21802 1469.7706 1316.1997
1054.0001 1449.5774 1722.8375
399.47479 1415.6691 1237.0786
1251.7769 1411.2545 2916.4653
1021.0406 1427.1669 1257.9214
454.48401 1471.7706 1248.2001
820.28479 1467.9436 1594.8964
541.12109 1439.132 1286.5436
754.64594 1458.9634 1482.8656
1189.3782 1466.8783 2250.2417
1110.2314 1458.3824 2257.8428
1048.3562 1490.0643 2054.4917
794.03516 1479.7706 1223.7899
1037.6051 1469.7706 1847.2557
1052.9982 1468.1512 2186.4429
984.84326 1479.7706 2871.3752
172.6535 1476.1575 2917.2942
717.18323 1438.8157 2788.7974
1055.5909 1469.7706 2055.4302
617.75977 1404.5311 2847.1084
762.25293 1448.9705 2920.3792
969.02515 1479.7706 2793.1475
598.78882 1435.9231 1441.5391
147.4957 1479.7706 1306.4113
963.61035 1461.0917 2979.6565
931.63989 1455.9672 2636.8511
872.54675 1479.7706 1235.0566
1093.6055 1478.7666 2120.6787
1113.4194 1409.1119 1522.8319
247.7124 1428.9175 1325.4261
1253.0742 1478.4055 2857.9658
904.3269 1423.6434 1688.0254
1088.2371 1479.4746 1913.3914
120.22331 1493.0394 1382.7302
307.93469 1415.9099 2923.27
740.81207 1456.9109 2799.3643
672.75372 1479.7706 1201.5054
1033.6017 1445.0233 2310.197
1110.6772 1451.4479 2262.0837
984.51984 1403.6486 1192.8412
1139.4624 1416.5697 2459.4229
854.56488 1401.5077 2918.7209
691.01819 1483.5048 1198.3921
315.69254 1465.7706 2953.0542
1034.9797 1407.5809 1976.5702
592.21893 1434.7814 1385.5948
1084.0161 1438.3311 2008.4207
864.65826 1494.2538 2990.0566
1060.6323 1428.5817 1785.9386
1152.194 1470.1677 1906.3221
544.53754 1471.7706 2996.7712
1116.8794 1471.7706 1730.2039
562.42712 1432.7592 1296.3702
1181.3268 1471.5402 2310.9153
463.67578 1465.7706 1377.4486
377.05377 1487.076 2958.4431
761.104 1470.0198 2931.7915
528.75098 1474.6141 1291.3683
325.38077 1457.7649 3046.7371
845.54846 1498.6824 2890.9185
448.21274 1409.2571 1304.3527
322.27841 1456.0679 1309.5448
262.60986 1479.7706 1288.2332
72.045609 1402.2458 1397.0112
1244.0021 1408.7697 2850.3757
678.31787 1471.7706 1229.1494
1224.978 1440.0315 2584.2417
993.6051 1407.0487 1669.3431
853.74518 1451.5068 1253.6854
675.18048 1436.1926 1200.0568
837.13965 1479.7706 1267.7986
1164.3662 1452.8893 2007.5583
1047.5339 1401.052 2220.7375
358.90192 1473.4893 2966.1616
75.458664 1480.1736 2898.2104
1026.9709 1490.074 2816.3008
169.24268 1401.7683 1333.6736
653.14343 1497.4807 2828.5994
491.85773 1458.9882 1219.3247
563.22882 1465.7706 2878.2041
267.87079 1471.7706 3007.54
1030.9078 1465.7706 1791.4578
1016.9969 1421.6249 1294.2412
125.14604 1465.7706 2973.5276
1152.5251 1441.3013 2959.8008
1007.7468 1478.1752 1781.0546
1059.5143 1469.7706 1967.226
387.90814 1436.7855 3032.1211
1042.3019 1448.3995 2263.4517
1015.2743 1414.5763 2380.0989
546.87183 1465.7706 1368.3424
991.93439 1491.8372 1842.1689
378.88663 1426.2012 2968.7168
1067.2466 1479.7706 1347.6415
950.35864 1479.7706 2920.2329
1112.7727 1465.7706 2349.4182
581.23889 1411.5044 2939.4045
1124.8527 1479.7706 2877.1821
1054.9618 1472.7766 1897.504
1074.1422 1476.3848 1967.7103
55.862991 1469.7706 2985.9192
1033.9254 1461.0222 1455.3049
1098.7339 1479.7706 2670.8706
947.66443 1403.4482 1760.2
362.63092 1490.7643 2962.3147
926.44922 1462.6205 1650.5387
1125.7625 1423.1036 2405.6108
464.29761 1471.7706 2972.3481
260.55771 1471.5936 2988.3032
313.26288 1465.7706 1333.3296
922.60236 1475.8556 2978.199
1132.4652 1462.5139 1704.0413
977.40485 1429.9436 2970.1626
613.51355 1472.1512 1445.1495
307.93427 1465.7706 1347.5977
1067.2701 1479.7706 1465.6827
936.99634 1479.7706 1199.2902
1066.1862 1469.7706 2457.073
634.76263 1451.9562 2933.7791
103.55138 1403.5795 1260.1373
1050.0201 1469.7706 2228.4131
1033.7831 1403.1028 1971.4452
307.63385 1495.3837 1327.8929
1025.9662 1466.7432 2474.2483
959.21912 1479.7706 1293.9307
996.39148 1479.7706 1432.1626
1072.451 1465.7706 2367.5029
1049.6918 1431.9965 1681.8466
1082.0757 1469.7706 2442.1677
1096.8154 1479.7706 2725.345
519.58209 1418.2285 1288.8074
1115.5883 1460.0389 1543.4677
12.182678 1465.7706 2973.4812
386.12518 1417.1382 1314.9003
716.97736 1440.4205 3005.5786
1105.546 1414.2565 2251.531
1038.5149 1435.8132 1161.8687
508.58728 1471.7706 3005.5771
191.8307 1408.7552 1258.9028
1057.0386 1458.1056 1675.212
793.82257 1452.6779 2997.5017
123.3942 1425.1465 2909.3435
1057.4244 1469.7706 2015.1837
1109.6458 1408.9242 2252.2705
105.77451 1458.8937 3069.8186
1030.9033 1474.9011 2335.9062
1105.8693 1402.3612 2216.3391
791.91125 1429.4402 2726.1685
349.84845 1407.5648 1306.6471
1023.6094 1421.6473 1932.1566
698.53003 1457.8717 2999.4736
18.452347 1408.3196 1341.4783
264.74884 1462.0415 2972.6689
126.32422 1465.7706 2981.2319
1179.2224 1471.3274 2782.4976
967.85693 1479.7706 1288.3282
1056.917 1428.009 1750.5894
85.045334 1465.7706 2947.6406
1003.5281 1410.5115 2414.8054
915.23767 1479.7706 2965.8372
160.10126 1468.7089 1378.7129
742.86523 1472.2761 2819.8579
97.430267 1435.998 2990.2549
103.88003 1418.0577 1386.1193
1156.2804 1411.9854 2695.9692
883.04272 1491.9479 2693.2944
943.30182 1400.0481 2901.3503
994.49792 1452.6482 1158.451
1108.9606 1479.7706 1510.8999
928.58459 1443.5405 1728.6656
993.03125 1436.2429 2536.9548
261.13318 1435.0624 2923.825
436.16766 1489.2161 2909.9067
1090.4672 1469.7706 2311.4519
1018.5833 1479.7706 1550.1169
938.4328 1479.7706 1179.3043
1134.2529 1472.9954 1749.4076
247.10275 1461.3145 2970.5017
704.25879 1469.7706 2897.1584
102.97758 1467.2456 1260.7511
1182.8021 1479.7706 2672.4729
1087.6055 1454.4512 2042.5706
1094.4475 1424.6564 2031.135
732.38104 1404.575 2923.5188
837.83539 1426.3297 2984.832
330.26715 1462.3698 2965.7827
31.401276 1475.8263 3002.9333
1038.451 1479.7706 1376.2159
1113.9719 1479.7706 1917.1379
1065.623 1469.7706 2077.4409
48.678055 1465.7706 2898.6465
1162.1226 1467.2085 2882.6189
285.70029 1435.1454 1321.4333
131.83801 1442.6526 2982.6165
260.67828 1429.8223 1316.0193
162.453 1465.7706 1371.1801
1207.192 1466.2709 2418.8086
759.3988 1468.53 1536.6208
1157.7539 1457.2778 1944.6473
1019.7607 1469.7706 1838.4274
497.04755 1441.2983 1299.22
1199.4727 1471.7706 2734.5093
696.34546 1496.5193 2882.2952
772.61621 1436.7684 1496.4308
739.72241 1479.7706 1304.0938
967.9314 1405.4771 1672.0415
692.64984 1436.0027 1442.0979
1192.5513 1474.5278 2855.043
1169.3113 1429.0154 2743.4158
669.75854 1451.6266 1281.0673
888.32825 1487.8319 1470.8369
821.15381 1464.6694 2994.4861
712.00586 1486.8042 2792.3655
1050.7787 1493.1525 1592.9482
472.96667 1465.7706 2909.6772
1000.0796 1492.5071 2700.0884
1204.5701 1441.8529 2390.0723
997.81299 1496.3267 1166.1467
1100.5144 1449.9739 2165.3911
1103.4956 1423.6467 1428.4142
1071.9531 1423.2996 1931.9154
211.25769 1469.7706 1368.0912
415.34314 1483.2174 2914.2244
1077.6133 1471.7706 1495.1836
1220.1162 1416.7041 2614.5188
1150.8091 1416.9086 2643.9133
1050.4709 1433.3401 1689.2596
923.98267 1439.6132 1721.7341
1137.6499 1479.7706 2815.4961
1082.8542 1479.7706 1499.7017
1221.9038 1426.1727 2554.9917
1043.9226 1411.8918 1550.4216
1064.3104 1462.0641 1165.7102
59.563889 1469.7706 2977.5093
286.33792 1461.9586 3042.7966
170.24825 1444.9076 1261.1713
154.00647 1427.1344 1339.297
1048.1549 1449.7972 2082.6575
1021.6105 1416.6704 1936.0514
93.897476 1420.1907 2990.6262
56.637634 1411.252 3066.9392
1051.4146 1485.694 2401.6128
1069.964 1453.1202 1798.1896
346.7937 1479.7706 1281.4749
931.87134 1479.7706 2961.7444
1058.4247 1471.7706 1350.0779
1114.5842 1498.7263 2035.8195
918.8114 1479.7706 1197.2147
934.14026 1400.3728 1737.4023
1193.2054 1456.394 2358.4795
1044.2264 1417.4205 2269.5906
377.04593 1476.885 2967.8337
591.03088 1453.9224 1374.2913
1152.6106 1475.7977 1950.035
378.39352 1465.7706 1319.5297
499.51257 1403.5077 3028.4351
123.41736 1465.7706 2955.9741
393.08316 1489.618 1338.0072
1085.2786 1412.328 2020.4316
376.89044 1479.7706 1249.9335
1137.3452 1483.6825 2961.3962
1229.3258 1487.3136 2625.6082
1204.264 1405.6635 2853.812
1134.8438 1479.7706 1918.5096
907.72571 1479.7706 2902.8086
1051.4663 1452.1917 1736.9971
1144.2487 1471.7706 2262.5833
992.70117 1422.6096 2450.2341
1213.3839 1407.781 2953.4041
1196.9313 1425.5759 2393.9287
837.94824 1473.3228 1608.4506
1069.7937 1471.7706 1672.658
620.85681 1455.2384 2842.4292
638.17407 1429.9077 1276.3429
1091.7572 1496.7347 2164.3936
211.74062 1490.1329 1329.7566
897.86328 1482.4281 1305.4092
1167.4454 1464.2333 2037.5575
871.84302 1462.2363 1586.0984
1023.6777 1469.7706 1730.7456
30.413757 1423.9087 2888.1055
1154.0371 1471.7706 2200.2444
769.05457 1426.843 2800.8516
850.87445 1432.1865 2919.1089
729.55334 1479.7706 2967.2136
961.61951 1479.7706 1393.5547
782.95807 1440.1144 2926.2473
979.4942 1479.7706 1448.5359
1150.3572 1408.8726 2563.0791
279.30966 1402.6041 1322.1051
1057.382 1493.6749 1159.8857
1014.8813 1408.9652 1274.1132
1081.5554 1469.7706 2040.4248
1141.317 1437.0834 2477.0679
812.24414 1470.0188 1196.9407
982.38617 1412.6804 1828.2347
1195.2854 1441.621 2378.2688
1042.0648 1478.0449 2962.1541
752.14526 1413.9348 2907.1924
983.06274 1432.8384 2472.3513
710.22656 1468.9453 1266.7378
709.4162 1465.4077 2934.3042
609.77136 1465.7706 2923.1208
349.58142 1413.1404 1314.7192
1025.9962 1469.7706 1778.9968
761.02246 1471.7706 1243.9478
694.26196 1407.4889 3007.9661
901.32379 1437.7091 2610.6228
315.51971 1476.1201 2973.3667
1027.1863 1471.7706 1283.3805
1107.9473 1449.8011 1547.3024
821.5661 1450.1016 1539.4894
756.37256 1446.5808 2909.1448
1110.0834 1430.1821 2956.2175
750.36731 1467.9332 1192.8171
1214.1719 1479.7706 2826.5227
207.94376 1454.4618 2924.1567
848.72491 1460.0071 1254.213
1113.9384 1430.4989 2293.1116
407.33801 1472.743 2915.5742
957.40234 1479.7706 2924.4084
450.88928 1424.0568 2953.105
1051.7178 1447.1392 1624.5886
741.44617 1436.4911 2994.9629
1017.6194 1405.2648 2372.3533
473.19537 1486.7394 1351.8535
449.23077 1471.7706 1260.9786
1002.4604 1450.4628 2417.5049
313.39557 1425.3009 1238.0818
186.57547 1402.998 1331.8518
702.61609 1434.4401 2922.6252
452.57477 1421.608 1231.4976
282.6875 1479.7706 3011.4548
1150.4829 1460.8507 2951.9714
918.01672 1491.0714 1300.608
285.02237 1476.1984 2923.9277
1232.5796 1409.4545 2656.5654
724.28461 1465.7706 2853.2222
224.40224 1469.7706 1342.8252
1060.3567 1443.5365 1783.3164
748.46118 1436.2859 2872.1404
1205.7393 1402.9778 2477.7307
1097.7441 1479.7706 1711.5928
211.73984 1471.3485 1329.7531
507.51624 1426.707 1403.1357
472.27597 1401.6871 1396.0105
1236.9457 1434.411 2774.6401
1193.5234 1471.7706 2712.4893
1156.7341 1468.1477 2025.7155
211.50182 1475.7113 3053.0837
1194.6355 1456.998 2295.551
745.22333 1479.7706 1343.5365
1095.0189 1442.6626 1424.2971
1039.4781 1425.787 1153.7234
1050.7391 1451.3062 1691.8115
1082.597 1465.7706 2175.4124
961.80682 1479.7706 1497.9758
512.39728 1453.7108 1297.6066
1244.1426 1469.2185 2776.5276
28.339676 1469.7706 2911.4331
1036.1746 1459.2761 1553.2384
559.32568 1402.4396 2941.7078
438.94153 1479.7426 1240.7964
127.20523 1458.3031 1338.0919
1006.2202 1492.6909 1878.2572
151.37091 1428.5299 1255.1113
216.41589 1423.0526 2921.7793
104.25262 1450.2946 1260.0636
1265.2157 1448.4774 2890.543
1170.0999 1479.7706 2771.9343
466.63101 1448.9479 2902.7908
1106.5833 1469.0571 1466.951
1076.8264 1451.6886 1940.0148
1208.3502 1479.7706 2638.248
1053.3788 1483.7618 2178.0706
852.4447 1459.5005 2991.3403
78.171738 1482.4926 2898.9766
1068.8823 1402.6238 1864.432
138.69118 1444.2279 1256.444
588.11462 1404.4387 1346.5449
176.70638 1465.7706 2975.4888
985.6698 1424.8473 2896.8972
1146.9846 1465.1526 2605.4316
973.29846 1479.7706 1198.3964
1217.8362 1402.6573 2516.2908
111.06973 1468.3846 1339.053
749.35803 1454.8859 2880.6738
310.28131 1444.4009 1322.8718
137.17049 1469.7706 2953.8359
1053.4336 1429.2164 2175.3274
888.84583 1438.8711 1667.3452
1050.1431 1424.7511 2224.6313
192.67422 1422.4255 2980.2444
1090.9714 1452.0914 1385.7883
1105.6375 1428.4584 2214.1338
576.4364 1420.9296 3012.3062
563.3689 1465.7706 1340.5391
1116.4933 1410.9445 2355.6877
591.05518 1459.87 1336.2554
851.88306 1444.444 1565.4066
460.48279 1424.8639 2960.1409
1065.347 1422.3204 1869.0635
72.666298 1471.4644 1329.2837
1108.0161 1464.116 2236.7646
1050.3098 1461.6344 2179.5327
332.25247 1402.521 2965.5742
726.54071 1420.0553 1515.7728
1017.2208 1469.1168 1363.4552
178.0029 1410.7393 2981.7864
612.80994 1472.1123 2846.3003
1216.4351 1477.3466 2577.918
583.427 1495.0236 2936.5073
891.64526 1412.423 2623.3196
1023.0217 1499.4133 1579.9097
931.97101 1449.4502 1181.111
1012.7321 1479.7706 1179.947
463.43036 1464.3422 1302.7532
708.6983 1415.1465 1196.5338
1062.4999 1479.7706 2963.8999
1084.3516 1484.7435 2840.4492
457.53827 1462.6617 1295.3285
1028.6816 1479.7706 2698.7344
834.84943 1417.8409 1551.9714
915.65698 1479.7706 2855.3687
1023.186 1444.1201 2363.8691
1029.0103 1483.2688 2330.2917
1097.4235 1461.306 2174.2502
1070.5869 1469.7706 2279.6453
681.7959 1479.7706 1227.4031
513.43384 1469.0803 1297.4977
803.37555 1422.3203 2773.2922
517.46277 1404.2683 2954.1519
1006.4817 1421.9635 2406.1096
199.65881 1444.1652 3051.907
712.18274 1457.6167 2933.686
1013.037 1485.4945 2396.1467
48.274071 1469.7706 1390.9979
599.64557 1442.1617 1280.3923
1005.8143 1479.7706 1346.6306
1071.7692 1423.1553 1891.8986
579.23132 1418.3954 2935.5935
1121.9608 1423.4655 1604.0984
995.76965 1479.7706 2766.2231
537.86371 1469.7706 1404.7789
834.65186 1433.608 2685.0229
1186.635 1422.8716 2861.9995
445.74506 1490.0635 2904.7449
854.73828 1400.7767 2918.7029
582.5506 1469.7706 1424.1978
624.20453 1417.4077 1453.7582
386.45642 1467.0089 2968.6521
785.10181 1438.3134 1268.9442
582.71442 1415.8638 1295.1655
1093.3945 1479.0098 1439.4259
1255.3224 1422.6183 2872.9492
381.85422 1483.5645 1377.8345
676.20691 1461.9161 1482.5051
1107.2618 1463.5641 2267.8557
758.18768 1479.7706 1276.2004
1079.8793 1408.6477 1203.7194
1185.8425 1435.9734 2862.083
1158.562 1438.6826 2641.1426
743.97253 1454.2776 2918.2786
148.19748 1419.8436 1380.5623
723.36249 1444.7467 2996.8635
841.133 1451.6545 2736.3877
1158.7103 1444.6439 2719.0884
383.13229 1448.8348 3040.667
1118.635 1457.5836 2337.7969
729.94421 1406.699 1274.7415
506.38043 1479.7706 2972.7627
395.34698 1473.2974 1376.8483
1260.9984 1466.8042 2926.9529
1082.6621 1465.7706 2333.7876
745.33972 1470.5764 1204.8119
1023.6401 1486.8981 1932.2635
1080.3867 1405.4629 2886.9421
1120.1691 1470.0406 2338.439
1080.0601 1479.7706 1768.3282
1269.1455 1433.2709 2927.9331
1129.6477 1427.0223 2954.1611
1035.0004 1493.8098 2452.4731
805.59442 1421.6826 1258.7462
193.63071 1431.7362 1374.3667
1123.3424 1461.1868 2306.051
1078.5995 1465.7706 2281.1582
1154.4465 1460.504 1989.7133
929.07562 1464.9104 1729.4054
1056.8124 1465.7706 2020.9714
1165.1589 1403.5303 2780.4434
1149.2281 1442.8687 1940.0636
1085.9617 1482.9702 2047.7018
1100.6389 1419.5421 1477.7688
16.802139 1422.0306 1414.2574
991.10498 1447.0201 2474.0125
1055.5676 1403.2729 1737.7518
1019.2223 1469.7706 2462.9973
623.89819 1452.3053 1285.8873
246.97174 1465.7706 1351.5336
827.21735 1479.7706 1212.6746
309.09683 1479.7706 1277.4496
878.59448 1499.7262 1596.1943
749.82941 1465.2892 2885.1582
1119.6714 1450.8846 2882.813
175.41362 1418.005 2917.6362
978.67993 1440.2117 2481.7266
392.99426 1433.5607 1302.1123
349.23633 1436.4659 1318.7775
281.76031 1470.0439 1370.402
559.72168 1405.2073 1212.1919
699.89868 1465.7706 2831.3726
1120.1635 1468.7794 2344.5337
712.0481 1465.7706 2909.4089
1010.8445 1442.23 1312.239
1049.3271 1410.6259 2097.3918
1212.6604 1430.9781 2467.0474
235.32404 1458.3263 1318.6841
680.27051 1481.6437 2812.793
309.0834 1450.8113 1322.9977
52.363663 1475.4452 3000.3467
166.45844 1463.0535 1261.5696
944.66992 1479.7706 2926.5361
1153.3983 1460.2269 2592.0142
273.4321 1402.5748 2979.8005
1016.644 1479.7706 2964.6609
1108.1246 1434.9263 2461.7131
1040.3578 1471.5352 1451.2959
1138.1501 1465.3291 2521.1091
581.70825 1469.7706 2884.4675
939.77179 1488.0315 2622.2375
1044.4634 1438.2919 2047.8875
719.53284 1475.4684 1200.7734
166.8934 1465.7706 2967.3677
703.30798 1451.0317 2934.6189
925.64954 1406.6057 1652.7506
596.04602 1471.7706 1249.5193
635.26392 1443.8881 2933.7263
1073.3992 1464.454 1907.4067
60.760498 1479.7706 3024.479
994.63153 1449.3218 2437.2976
764.10632 1437.0542 2754.002
489.13022 1471.3564 2893.561
554.86328 1404.9362 2942.1768
719.10773 1479.7706 1327.4481
655.2428 1405.0515 1421.1626
712.52795 1402.2052 1502.3489
901.72943 1459.0675 2978.1165
127.89944 1452.8909 3059.4492
1070.2272 1471.6913 1259.0864
1060.662 1469.7706 1822.9807
1250.5581 1465.4014 2887.8914
461.38013 1478.5282 1232.7384
1053.8634 1459.6472 2153.7798
601.88818 1450.1694 1439.3243
167.25386 1464.9521 2982.9163
635.35278 1464.6582 2929.6951
255.13086 1463.9918 1244.2408
1122.6371 1441.9095 1687.0667
1256.0566 1451.9407 2879.9348
92.983383 1487.9094 2944.7947
4.0225449 1453.4608 1270.5983
827.88196 1425.2194 2696.2002
73.820984 1406.6234 3000.7805
241.52258 1465.7706 2953.8174
1073.8425 1479.7706 2692.314
1063.0155 1481.7477 1931.307
724.10632 1465.7706 2784.2708
1076.2267 1494.1931 1977.4244
1047.266 1408.218 1160.949
398.10693 1471.7706 1252.7266
1024.0955 1424.0555 2360.574
640.65552 1444.4939 1416.1704
426.19043 1432.3137 2955.7009
1050.0068 1495.1372 2412.0596
743.51373 1479.7706 1249.0485
1215.4828 1416.476 2493.9004
365.75037 1457.7031 1317.0417
1103.4092 1455.0427 2231.2
1182.8572 1471.7706 2447.3613
62.125229 1478.1445 1396.5969
647.7915 1426.7308 3004.8064
1092.5537 1409.3943 2089.6499
864.13855 1410.2819 1637.2695
660.71899 1455.6517 1469.741
1076.8948 1432.7435 1940.6649
1131.7371 1479.7706 2940.7383
864.56683 1496.5035 1581.4353
414.1488 1453.4447 2956.9666
436.97327 1471.7706 2985.6765
1122.0939 1479.7706 1996.3647
1093.2699 1483.248 2966.0286
594.70502 1461.3114 1439.6793
1123.6792 1448.9233 2385.7896
170.15833 1441.228 1337.5994
916.37268 1496.9136 2803.458
956.93384 1454.8777 2980.3582
803.00623 1437.5287 1578.1656
1122.7805 1479.7706 2791.3513
242.18274 1434.0297 2923.4084
1043.2909 1469.7706 1857.5096
742.61847 1462.7809 2766.7556
928.909 1476.2488 1653.6484
695.84308 1462.8599 1446.4478
268.16467 1467.3889 1322.7002
1099.0322 1438.6207 2151.2891
951.75958 1498.0358 2656.6204
656.41431 1437.1752 3003.9001
1265.3203 1422.1193 2897.5579
755.70728 1414.0686 2808.2468
351.80591 1410.8218 2923.0549
963.82544 1465.7706 1704.9249
999.18799 1469.7706 1686.5913
1024.7334 1439.6664 1444.3835
957.99731 1444.5392 2595.8645
501.27008 1423.9791 2947.8096
212.97406 1446.0358 1333.0992
348.29065 1436.7886 2963.8884
824.5672 1427.4093 2699.6328
1050.8896 1480.3248 2079.1475
1188.6133 1405.5072 2314.7881
551.25208 1438.3225 1293.5228
583.66071 1465.7706 1375.7897
1149.4507 1455.0226 2630.989
241.12094 1482.5724 1328.0299
680.25195 1432.8346 1207.5677
17.190468 1456.1371 1341.6108
539.58392 1457.1884 1414.0016
1129.2728 1439.7123 2439.009
905.09912 1439.8262 2985.8062
596.59235 1445.7651 1388.9381
1114.2972 1405.9143 1531.184
1001.5677 1479.7706 2899.1587
447.03839 1471.4097 2948.5288
1084.5596 1471.0486 1370.4117
100.15143 1465.7706 2914.2307
1216.0684 1435.5398 2852.5713
852.43604 1449.261 2665.6775
1179.9979 1461.3195 2845.0928
1068.5586 1468.3999 1854.3374
507.39478 1435.9526 1217.6917
1243.0051 1472.655 2782.4563
1152.6602 1475.8065 1950.5897
335.58124 1424.8522 1369.745
443.09967 1419.4604 1308.912
45.855927 1444.9933 2995.6755
585.14648 1469.7706 1408.7003
1048.5068 1414.3187 1670.5718
1248.6346 1418.1719 2918.375
1148.5995 1444.1003 2546.3564
733.59839 1447.1476 2777.406
1186.219 1431.8778 2292.0078
278.33234 1443.1682 2971.2415
1035.1267 1477.8674 1990.8303
644.80725 1479.7706 1253.5405
1184.5958 1479.7706 2839.9739
371.89575 1470.3994 1333.1416
525.5542 1467.7961 1296.2238
365.27252 1471.7706 3018.3096
958.03101 1477.0688 1177.6581
655.16803 1490.2493 1276.5741
1049.2711 1433.0009 2463.877
886.67548 1404.2577 1669.2123
1099.5214 1431.2268 2458.5955
1091.521 1438.4867 2459.4363
1.4508667 1412.9377 3072.7395
369.09668 1441.4926 1304.624
1038.8768 1465.7706 1774.0479
848.37793 1435.0225 2911.3271
15.984619 1449.5999 1349.7816
650.91931 1443.8129 2829.8252
108.18001 1476.1542 2909.2334
1165.874 1410.9771 2710.7126
992.91864 1442.2957 1158.6171
912.10046 1448.3643 1255.5961
1116.439 1450.4492 2316.9038
358.47406 1453.3923 1317.8065
1067.71 1479.7706 1219.7083
1074.0513 1479.7706 1512.8108
137.69258 1476.416 1340.8192
299.2478 1486.9583 1329.6556
1110.1272 1442.8014 2295.1184
1111.1453 1465.7706 2373.8132
1075.6046 1471.7706 1326.2382
875.10608 1405.8026 1259.4844
25.070244 1432.8862 1352.8488
1164.0227 1454.266 2900.6975
724.43445 1434.2129 2924.354
575.61963 1491.9846 2866.2861
875.47565 1451.6659 1592.7441
1090.1206 1492.3447 2091.4875
1165.1489 1433.4456 2911.4124
551.10321 1448.1495 1285.4944
155.85236 1456.1328 2984.1145
1061.6228 1469.7706 2445.9375
1119.1073 1497.387 1576.949
1063.5563 1465.9331 1810.4819
524.69513 1469.7706 2925.5859
303.95364 1421.5978 2926.4631
849.61987 1479.7706 2936.1174
1047.0797 1408.2976 2250.1052
1066.6652 1469.7706 1888.8629
1001.6413 1479.7706 1199.4926
1058.5989 1421.9124 1804.8589
591.5238 1479.7706 2958.2698
743.0285 1492.5112 1477.2311
1047.5332 1468.1783 2074.842
935.61536 1439.0059 2628.2219
677.90588 1469.7706 2851.7808
1.2415619 1477.5973 1373.9142
829.18207 1457.3127 1599.5521
1038.4309 1469.7706 2427.7798
1103.0514 1462.7981 1424.1876
1000.981 1406.9404 1172.1484
978.75879 1470.858 2481.5493
439.91449 1469.2998 2964.5728
1092.0355 1434.1101 2084.7202
708.71899 1469.7706 2853.6897
230.78185 1415.9574 3048.6357
138.95543 1414.5778 1328.8129
1127.864 1471.7706 2209.6123
869.19647 1479.7706 1385.2299
800.92737 1479.7706 1232.7659
1105.4695 1479.7706 2735.4553
540.32178 1403.1676 2943.7051
569.24072 1465.7706 1395.4095
1142.0703 1479.7706 2560.4204
235.73761 1405.1975 3048.115
714.10651 1410.7802 1457.8461
278.68335 1437.4532 2926.9155
961.58521 1490.5535 1530.1593
171.00648 1479.7706 1308.183
1175.0498 1414.3636 2957.1855
168.16208 1469.7706 2936.1631
1036.061 1480.2097 1995.9441
663.45703 1442.1429 2926.7412
538.02942 1416.6818 2943.946
674.45099 1431.1263 2925.5857
1199.7782 1471.7706 2821.1685
1043.2216 1414.9937 1153.33
1052.5807 1453.3058 2192.4111
617.97217 1465.7706 2856.76
1017.4783 1442.2085 1298.8204
1109.7882 1471.7706 1711.2917
1041.7476 1479.4283 2027.1243
530.54724 1469.7706 1302.3582
933.38013 1417.543 2974.7898
755.24976 1463.5708 2757.1301
936.63403 1475.8876 2552.9158
411.05139 1469.7706 1352.6926
853.79669 1423.0212 1630.1307
511.3822 1479.7706 1245.5566
1227.6699 1471.6509 2757.1677
1014.7941 1482.7648 2381.5193
1091.8027 1474.4176 2135.6729
1063.6736 1471.7706 1544.2228
87.822433 1471.7706 3009.334
923.94934 1481.0677 1721.684
1091.5844 1488.5851 2966.2058
57.936554 1492.406 2893.2605
644.70306 1436.0861 1461.1218
1120.4397 1438.5961 2354.9673
314.67249 1447.5217 1371.3207
559.78564 1406.0388 2941.6594
567.47931 1472.4513 3018.5896
49.591721 1477.0356 3068.4587
1167.6794 1471.7706 2610.1553
806.60651 1466.8567 2770.4683
544.98865 1453.459 3015.6113
880.98553 1471.7706 2930.1829
634.00024 1443.8966 2933.8591
933.35254 1471.5964 1659.6849
376.38736 1444.6221 2956.9133
1115.6274 1469.0469 2300.0723
338.0864 1494.5527 1369.983
1163.2164 1457.8289 2685.427
971.82117 1479.7706 2946.78
41.360321 1427.4574 1347.1146
1120.5459 1464.379 2460.4077
987.68744 1479.7706 1538.3114
579.27997 1427.4436 1294.5989
918.13306 1477.4995 1182.7015
1248.7672 1466.8596 2815.2612
1019.0125 1465.1716 1387.8297
22.059662 1412.7162 3070.5735
1081.5392 1438.1434 1984.8538
998.49536 1466.9237 2435.8069
622.55481 1446.256 2935.062
578.21704 1469.7706 2869.8418
421.77863 1424.781 1234.7344
1124.1262 1406.5646 2390.042
1046.9651 1459.9237 1579.3698
1096.9187 1460.6025 2131.1804
138.97617 1479.7706 3033.7539
174.86667 1466.4004 3053.9866
996.03186 1453.7786 1852.4581
855.8609 1495.5941 1530.2926
1171.2584 1479.7706 2474.3032
691.71631 1448.0079 2927.793
733.75403 1421.1608 1274.3411
1164.8756 1479.7706 2582.6394
129.44388 1420.6548 1337.8566
1010.73 1469.6577 1299.0612
613.36115 1463.9899 1445.077
185.62604 1465.6382 3053.0083
1118.6221 1415.7556 2375.9409
828.97083 1454.8768 2913.3669
1091.2968 1469.7706 2300.8352
75.257599 1469.7706 2990.3933
1195.0809 1464.5364 2300.9507
547.34619 1471.7706 1257.2606
1140.6964 1479.7706 2797.3257
1108.7983 1469.7706 2249.9521
572.5332 1499.9768 1353.5532
1002.4037 1465.3651 2895.3923
1219.8334 1446.8352 2611.8276
1042.4215 1440.9749 2032.2764
1119.6797 1488.0725 2782.6182
597.86523 1491.8479 1437.7095
1063.9402 1440.608 1817.4113
537.66052 1450.7113 1298.9733
1041.1523 1446.0563 2007.0768
643.90747 1465.7706 2912.8977
1165.3062 1441.5913 2781.8433
1156.2251 1412.2494 1930.1007
612.00653 1403.6431 1287.1372
1062.9736 1465.1862 1806.0702
1194.0604 1426.4397 2854.8843
151.49083 1491.9346 1338.4476
1035.1755 1481.7688 1991.0975
279.29529 1458.5559 1322.1066
881.82861 1424.2856 2635.7561
107.75513 1469.7706 2918.5916
348.26227 1438.4688 1318.8799
1154.0078 1497.1477 2527.2764
202.77791 1471.7706 3026.0845
482.91443 1478.348 1290.8506
1071.4912 1432.5983 1927.5208
415.26071 1434.8217 2952.8276
1020.0427 1465.7706 1683.9274
333.89648 1471.7729 1369.5848
1020.0087 1499.4407 2375.0493
1137.8679 1404.5319 1831.9789
1219.9631 1403.797 2613.0627
878.68146 1431.5017 1186.7119
165.15065 1468.1803 1263.2252
1040.3502 1418.191 2002.6558
387.17395 1440.3544 3040.2424
894.32349 1479.9885 2619.9268
1137.7227 1455.1416 2888.96
617.33533 1471.7706 2973.9326
1082.8304 1449.493 1231.7974
1239.156 1408.4545 2795.6697
517.39667 1445.4233 1297.0812
401.96234 1456.7107 1301.1697
101.495 1426.7847 1268.3976
513.83661 1465.7706 1384.751
67.00943 1479.7706 1290.1438
124.85413 1477.2533 2912.5176
922.32971 1429.5048 2580.8408
446.85168 1479.7706 1254.8004
1041.9937 1479.7706 2933.8787
1042.9877 1491.8115 1593.7672
966.25964 1465.7706 1736.0243
1014.4424 1461.5494 2382.5598
1202.4458 1441.7679 2369.8616
1030.7103 1450.4495 1501.2498
976.25726 1471.3743 2566.6067
988.77051 1431.9662 1233.2839
1084.6335 1491.8708 2023.8466
953.21423 1465.7706 1721.2328
923.95276 1479.7706 2808.5649
991.66089 1494.14 2710.4846
970.34381 1471.7706 2950.4233
715.34503 1429.4137 2925.3096
204.90535 1479.7706 1267.8248
503.03784 1413.2102 2955.668
583.42334 1479.7706 3002.6421
642.41028 1436.0226 1283.9417
282.01889 1414.7457 1370.4076
322.92679 1465.8032 1245.5306
1035.8319 1475.6699 2313.8135
1121.4109 1426.8795 1598.8661
1113.7017 1433.465 2290.8596
707.11548 1449.1805 1196.7002
387.36896 1419.4259 1314.7695
634.22986 1469.7706 2844.0066
789.75256 1479.7706 1368.8228
960.39008 1420.4305 2971.9509
613.47021 1420.2755 1206.5427
1068.2764 1479.7706 1661.2201
1108.7344 1407.1177 1554.7913
668.2594 1428.3834 2930.2583
1113.3323 1479.7706 1687.2755
935.75146 1479.7706 2831.8413
707.23279 1497.0574 1324.1888
525.33655 1463.5612 1223.85
54.86277 1473.1429 1357.2296
990.38568 1479.7706 2929.6353
999.47375 1479.7706 1390.3325
940.28381 1430.8378 1747.7584
728.9292 1487.6287 2780.7031
51.024132 1453.871 1350.1208
1025.2411 1479.7706 1210.9241
486.40909 1471.7706 3008.6287
1122.1602 1471.7706 1763.4382
1012.9535 1479.7706 2971.1533
983.28448 1479.7706 2844.9031
1096.5961 1425.0623 1362.7693
1093.5148 1417.8452 2137.0618
955.10931 1431.009 1673.3892
1166.0063 1407.1051 2711.9714
1116.5974 1442.156 2318.4111
828.36102 1417.365 1183.9568
477.82486 1429.8903 2946.252
105.78447 1411.4825 1340.3433
625.73663 1429.2527 1285.6941
627.20642 1439.0577 2930.5513
337.04495 1452.7897 3045.511
1103.9924 1479.7706 1582.6034
366.17947 1487.7522 1375.892
247.83008 1483.2312 1370.8542
383.23175 1435.3198 2956.1941
805.33502 1497.803 1580.2555
1073.6442 1480.072 2328.5266
122.51526 1476.2388 3061.9062
1130.4525 1479.7706 2578.4692
1089.5603 1411.2123 2099.4373
433.42215 1471.7706 1285.2081
1030.2151 1465.7706 1799.4894
581.46765 1482.188 2905.1721
207.91147 1471.1945 2924.1536
94.182755 1479.7563 1349.4044
1020.7319 1418.6381 1406.3119
226.97617 1445.1064 1327.6056
199.42926 1425.7638 3051.9312
1120.0659 1471.1274 1709.3612
1060.7899 1401.1289 1787.4377
1052.1166 1493.7953 2199.0493
1059.5015 1413.6896 1775.1791
1087.5804 1486.7366 1276.991
949.552 1465.28 2611.6609
417.30585 1411.1979 1380.6421
874.98462 1441.3599 2704.7896
109.32295 1416.6368 2989.0049
991.51752 1494.1226 1849.3634
1078.0453 1418.8584 1262.8047
246.68921 1444.4681 1253.1371
1032.1095 1479.7706 1271.5918
836.91345 1480.2006 2901.582
866.19427 1429.11 2714.1443
102.19304 1464.5404 2989.7544
985.17383 1473.6512 1256.7318
796.57678 1409.786 1195.3416
740.03998 1443.502 2792.0183
594.59058 1465.0983 1439.6273
560.44293 1475.6565 2947.158
245.82233 1445.983 1325.6248
893.57031 1478.3799 2977.1006
136.46094 1471.7706 1273.2927
1050.604 1443.627 1728.793
1237.439 1463.0297 2779.3335
221.19275 1468.5238 2925.3396
528.15259 1469.7706 1358.4462
55.626572 1443.0511 2892.6079
305.99942 1483.9015 1329.8307
803.40063 1479.7603 2770.6147
1068.3257 1464.7856 1780.6709
780.88104 1479.7706 1190.6943
930.85626 1465.7706 1706.6041
153.62416 1470.0637 1379.5707
1116.5953 1479.7706 1727.1238
394.55725 1453.6625 1229.5514
160.26074 1451.2393 3064.0918
733.75635 1479.7706 2982.8713
765.45984 1497.5825 1490.9209
660.76086 1469.4365 1424.2007
843.50061 1493.0328 2736.8818
1114.5006 1479.7706 2081.5283
1251.533 1414.6741 2836.8948
1047.5544 1479.7706 1454.4056
1158.4238 1451.5096 2716.363
954.15027 1428.4069 1251.1765
825.52039 1486.5861 2751.28
1122.4877 1479.7706 2176.0645
817.30963 1479.7706 2976.8965
172.19702 1428.9078 1325.319
1147.6372 1408.8948 2613.7344
1091.3488 1468.6049 2070.8611
453.82349 1482.6315 1391.4714
1014.6287 1479.7706 1255.3033
46.351028 1402.6461 1266.1493
1077.7722 1420.1538 1872.4792
817.14832 1401.9299 2761.2534
604.88348 1474.8949 2849.9749
1085.8351 1401.72 2063.9937
1170.3398 1455.4457 2829.7356
1228.9725 1407.6901 2698.7808
1021.0924 1420.7498 1409.7419
1123.292 1471.7706 1828.9291
789.15637 1479.7706 1250.6493
28.293671 1473.2531 2927.2556
1121.9656 1418.8397 2369.4861
1186.631 1446.6973 2295.9285
1178.0171 1400.1519 2826.2454
1214.267 1447.2009 2859.0955
159.18301 1471.7706 1273.9681
262.4935 1451.6359 2972.906
722.8559 1422.4333 2920.498
300.89066 1405.1643 1323.8588
248.26932 1471.7706 3010.0537
934.33612 1425.636 1180.8624
631.28516 1420.514 2840.5117
460.56973 1405.656 3032.5281
362.04214 1452.1519 2919.0332
1075.3616 1470.5294 1221.0071
244.82181 1449.9501 2982.8076
257.95383 1423.088 1324.3497
67.76004 1430.7196 2896.0354
1142.8955 1459.3584 2960.8127
752.83044 1460.6178 2812.8057
1014.4766 1465.7706 1812.7578
1177.1711 1477.1803 2201.2261
1139.9119 1482.359 2961.1265
572.72363 1463.9608 1291.266
1101.4353 1459.9153 1408.8116
515.7356 1471.1653 3024.687
1069.476 1451.5485 1793.546
504.57715 1412.5093 1402.2451
507.2002 1444.2159 1290.1088
1138.1165 1412.2356 1757.8093
957.72729 1479.7706 2930.2983
1009.7902 1461.524 2472.0486
71.408539 1479.7706 3045.9355
167.40619 1456.5989 2990.9443
399.33167 1469.7706 2929.7314
951.52917 1479.7706 2836.3008
1018.2213 1439.1051 2901.52
735.45117 1481.8842 1518.5029
600.30261 1407.3868 1424.2388
885.23975 1448.2365 1600.759
382.2998 1467.4728 1302.1935
1214.3365 1434.0759 2482.9946
968.87793 1468.1561 2908.208
1193.9547 1435.0471 2365.6084
1168.3987 1471.7706 2499.4246
1020.4381 1438.2795 1932.0059
761.95953 1479.7445 1490.7493
1074.4185 1499.0809 2315.5598
1195.5151 1439.1519 2380.4548
1086.6344 1475.5516 1319.9601
140.37221 1479.7706 3014.6814
792.9118 1402.8414 2781.9807
979.74384 1409.4659 2897.52
1090.6238 1449.3396 1305.9458
522.73273 1448.9344 3017.9507
1053.8757 1403.1991 2153.1643
249.21143 1459.2123 1329.2905
1026.8563 1469.7706 1720.6068
779.53864 1402.2111 1504.2841
750.36633 1409.5908 1272.595
105.42867 1424.0247 2985.3923
319.58661 1465.7706 1329.9827
298.98145 1469.7706 1344.2245
599.81836 1418.3828 1419.6312
1045.7166 1479.7706 1376.629
4.8862305 1469.7706 2977.2043
1087.3389 1479.2454 1396.0336
1093.3287 1463.3719 2097.0239
1151.719 1461.5148 2652.571
365.80621 1449.5623 1232.5732
991.39099 1479.7706 1222.6932
118.91167 1465.4934 2987.9971
1222.6632 1441.0957 2638.752
947.51282 1492.7592 2614.5969
596.18793 1440.6462 1423.3573
511.37177 1418.1884 2954.792
1156.2183 1473.3344 1960.7933
1063.6957 1430.5065 1738.5505
1269.1289 1452.2375 2927.7747
1064.2665 1465.7706 1898.9485
58.653992 1439.1218 1337.2528
1113.6003 1415.7491 1524.5537
616.82037 1401.479 2847.5667
184.85393 1415.4677 3061.5071
1242.9949 1416.6653 2943.9573
583.25732 1400.1138 1300.3308
886.0304 1445.7866 1601.6635
135.74481 1476.4868 1341.1624
580.15356 1455.3125 2947.5627
52.039291 1416.1577 2995.0256
88.968277 1490.1676 1389.6193
104.48151 1447.1987 1344.5022
794.43665 1435.5985 2997.4373
713.50977 1434.7472 1503.0111
842.99121 1446.4583 2919.9375
864.80481 1479.7706 1379.2084
1251.4406 1479.7706 2896.8826
1043.3663 1486.624 1863.6666
616.48199 1471.7706 2962.043
1053.5647 1452.9259 2168.7542
1143.9586 1471.7706 2022.4011
1161.0732 1433.7777 2932.906
789.98431 1420.7819 2997.9053
1100.6061 1465.8348 2166.2634
102.21651 1466.4291 2989.752
643.17346 1431.8339 2932.895
1213.8235 1428.0586 2478.1133
388.42093 1453.3328 2955.6487
37.927032 1421.9182 1406.957
991.0127 1444.1418 1254.6167
953.09283 1404.4385 2606.563
1032.9905 1461.0229 2465.5881
44.730141 1416.5042 1401.8937
861.80078 1475.9668 1634.6469
709.60138 1471.7706 2945.1594
956.0686 1463.8093 1178.5861
453.56342 1463.9532 2906.1877
1068.9529 1479.7706 1588.1896
585.06409 1469.7706 2930.0747
1110.8 1411.9211 2263.2524
1065.3152 1415.5323 1830.4932
1179.1674 1479.7706 2652.8398
822.78516 1479.7706 1215.9904
968.86487 1408.245 2971.0603
636.23401 1456.9841 1459.9904
1121.0284 1471.7706 1748.4592
1240.8928 1442.6437 2812.1948
497.56879 1460.7371 1299.1652
1055.5278 1479.7706 2859.1111
324.22235 1402.3726 3046.8589
1053.4224 1419.1366 1717.3407
1142.7694 1467.2072 1807.2865
1087.9323 1486.2065 2839.2346
646.50708 1469.7706 2910.8291
1232.1284 1444.8729 2652.2729
341.15469 1452.1725 2964.6384
612.78625 1469.7706 2934.2749
1034.0743 1440.2303 1972.6927
805.67419 1425.9979 2717.6423
1144.7666 1417.2947 1897.6156
81.026733 1495.6284 1394.6383
561.7605 1455.0034 2868.6926
1020.5336 1464.7538 1326.0194
1096.4277 1471.228 1999.5365
741.53186 1498.3647 1523.0615
161.96834 1410.5229 1338.4601
47.34491 1469.7706 2962.2642
127.89328 1457.6757 2995.0974
1158.5464 1475.4547 2666.488
914.9834 1475.6296 1639.266
964.6416 1484.3751 1708.8403
521.32819 1479.4159 2959.5378
639.15851 1482.3518 1461.5054
1089.4197 1469.7706 2382.0493
396.35721 1469.3507 2959.9497
479.59546 1418.5593 1398.0782
243.80884 1465.7706 2959.2256
914.70404 1470.3123 1186.6133
854.94885 1426.7684 2725.8384
70.715576 1448.2499 1348.0511
1048.9835 1469.7706 2025.7872
194.33176 1406.5525 2922.863
225.98712 1449.0876 2972.7212
1118.0128 1437.0444 1566.5359
1073.2849 1471.1377 1963.6931
1027.3 1472.4126 1957.0208
413.7262 1479.7706 1272.1898
1041.9236 1425.8192 1262.0613
546.93701 1460.8975 3023.4504
1194.4629 1479.7706 2661.3774
371.86963 1450.8644 2969.4543
1166.1267 1479.7706 2889.4583
615.48657 1479.7706 1257.4863
1073.4254 1469.7706 2400.5845
307.05035 1463.6006 3040.6196
589.42249 1486.4247 1437.2737
1045.0721 1495.2739 2241.6062
69.91153 1414.6262 3001.1914
810.03351 1422.6254 2923.4016
201.31078 1449.5815 2987.3809
318.86252 1455.5176 3047.4221
448.13467 1479.7706 2985.6538
706.2782 1438.5853 1498.1334
1100.7773 1443.5663 1479.0848
314.42114 1488.3365 1368.4393
943.61194 1464.8905 1180.1115
611.30005 1479.5938 1272.2457
1027.651 1405.0841 1395.6085
1229.9612 1471.241 2759.252
953.73572 1401.5298 2972.6504
1099.72 1420.6685 1469.0247
1082.4673 1469.6376 1993.6843
523.72766 1426.8882 3017.8459
1005.8774 1435.1376 2516.6465
1014.3309 1433.6146 1902.0045
1090.2717 1471.7706 1893.3765
844.64423 1414.0415 1190.2894
842.5163 1400.4545 2737.8311
1184.8011 1447.1742 2201.9841
409.42416 1406.9187 3029.8599
1058.5447 1460.1923 1766.0764
1061.8732 1417.5784 1151.9868
556.34058 1444.7651 2950.0657
1154.7542 1471.7706 2085.0464
946.87122 1454.7863 2541.4521
870.71021 1445.373 2649.4282
310.21432 1471.437 3033.9292
1118.1797 1466.0287 2333.4656
466.61591 1428.9518 1306.4404
630.49927 1468.7955 2837.3511
1119.1082 1438.9783 2265.7649
238.24219 1449.9752 2975.4551
1037.0896 1406.1682 1561.9447
1122.781 1412.105 2300.71
1127.1199 1479.7706 2228.5793
1036.2367 1410.5991 2311.9985
1093.8074 1428.8551 2101.5786
862.12604 1415.9482 1576.0251
866.5354 1410.0792 1639.9581
124.18074 1405.295 1342.4318
486.32663 1449.5311 1300.3467
949.71387 1403.323 2530.5237
1110.5967 1479.7706 2074.4768
297.38043 1487.6881 2964.6528
511.57324 1469.7706 1329.6691
902.22229 1484.4176 2820.9321
1188.6411 1489.1848 2956.0046
1124.2021 1479.7706 2927.5093
860.02246 1411.8232 1253.0256
946.1925 1451.2098 2973.4431
1161.2141 1454.9802 2950.8435
584.83844 1427.5901 1431.9043
753.2901 1428.7687 2810.0098
1123.5205 1432.4556 2384.2793
1161.4449 1447.1096 2668.5728
819.8548 1464.6178 2699.9202
605.16528 1438.0266 2936.8899
1202.1781 1454.3589 2443.8489
1042.0227 1485.1439 2011.8719
1216.8184 1469.3948 2605.3496
575.03644 1461.1749 3012.4531
832.34595 1420.6127 1606.8765
1168.4114 1449.1868 2942.4524
307.03375 1438.2823 1246.7946
1138.3824 1441.2007 1836.8738
674.5332 1469.7706 2884.8394
1167.9264 1471.7706 2391.6067
267.57349 1479.7706 2993.3545
745.68262 1430.3856 2994.5176
1085.0684 1498.1635 2026.441
673.52722 1470.7786 1480.9398
770.01294 1435.8698 2800.0933
1187.7118 1407.1187 2949.7678
733.81476 1495.9564 1470.8319
1115.6167 1458.3933 2347.3472
1069.3844 1465.7706 2071.9067
1079.8885 1474.6244 2006.8514
1043.9727 1492.4683 2250.478
735.3053 1407.9486 1274.178
122.79256 1465.7706 1343.417
465.49246 1471.7706 1250.8281
933.23199 1435.608 1245.3311
1081.9316 1465.7706 2437.5713
554.85461 1439.624 1285.1001
356.06714 1465.7706 2958.3279
732.60999 1479.7706 1244.0406
1019.691 1471.2172 1376.7197
1167.8354 1471.7889 2063.0422
372.41937 1451.8495 1239.9222
694.2865 1479.7706 1223.5326
583.64355 1440.5463 1431.4078
1237.5642 1435.7521 2703.9917
1260.1669 1461.728 2919.041
1102.6798 1469.7706 2296.1182
334.65521 1448.8712 1235.8474
922.72888 1402.608 2975.9092
1039.7117 1479.7706 1316.7738
700.05212 1431.3511 3007.3574
491.40332 1465.7706 1395.1719
1016.467 1457.6669 2495.2612
780.68701 1431.2316 2990.8384
125.94971 1453.394 1265.8273
526.66937 1428.3374 3017.5369
1099.9434 1409.0312 2957.2832
1088.4321 1428.2422 2894.1406
1026.0778 1424.1476 1171.276
1.9877014 1452.1469 1419.3772
631.83789 1453.6613 1204.6122
305.79962 1471.7706 1279.0029
1013.2783 1499.9192 2683.7896
269.50375 1404.6919 1323.1357
679.96204 1448.3773 3009.469
924.13586 1461.0831 1173.8905
524.69958 1400.2672 2953.3914
1172.6211 1426.4056 2774.906
1157.9746 1421.8219 2712.0884
1116.7386 1437.4335 2319.7551
161.77422 1430.835 1338.4806
832.19482 1467.8846 2913.6833
549.51367 1403.7933 1213.2648
1035.7915 1481.2467 2313.9949
893.7157 1409.552 1249.4844
1106.2168 1446.2584 2219.646
1038.3684 1465.7706 1738.745
1149.3297 1417.4078 1864.4962
845.93066 1479.7706 1273.2321
1249.8729 1491.8307 2821.1011
873.40393 1479.7706 1182.062
1165.5885 1479.401 2915.595
664.26367 1498.8676 1393.3772
981.77869 1496.2621 1819.7567
1157.5051 1454.3373 2707.6213
1083.9841 1479.7706 1652.603
655.60425 1487.7635 2872.9534
376.32001 1416.7188 3033.3391
827.27905 1479.7375 2978.1072
389.13849 1479.7706 1294.2192
635.38074 1419.6492 2929.6921
438.67648 1416.4717 1305.355
1134.0308 1412.9663 1795.4707
958.19714 1474.3109 1699.0188
1120.7885 1448.2483 2396.5535
234.88693 1458.0741 2925.9546
335.21606 1479.7706 1270.9354
1053.8739 1488.7059 2136.6357
10.54895 1431.9832 1350.353
338.86841 1410.476 1319.8672
990.17175 1452.4652 2474.1106
808.69653 1479.7706 2960.313
1157.77 1404.6757 2710.1414
156.22774 1469.9261 1337.8141
1177.2809 1479.7706 2451.4285
1058.3147 1479.7706 2937.2312
1048.4896 1469.7706 2021.4108
1085.2091 1418.3966 1330.9631
345.43359 1403.5852 1315.1552
472.54541 1403.3361 2901.2537
1107.9559 1446.838 2159.6582
44.862411 1432.8326 1404.8887
1181.849 1426.6801 2250.4304
1065.7168 1454.3683 2960.8806
1016.8064 1463.6917 2893.6245
1158.8943 1469.1168 2623.8743
1047.6234 1428.3468 1152.8673
678.6864 1479.7706 1215.7028
957.87 1467.2385 1250.2333
885.33093 1484.187 2626.6113
519.35687 1479.7706 1269.0533
1194.3623 1478.3459 2949.0688
1266.3191 1430.2013 2901.0422
1120.2643 1417.9081 1587.9573
1114.3062 1461.4321 1531.2692
1108.7108 1471.7706 2058.7424
691.65918 1457.8999 2923.7769
239.2959 1469.7706 1328.7549
379.63239 1449.7887 2960.5942
733.00397 1479.7706 2987.4377
228.74915 1405.5625 1368.7283
1071.6722 1479.7706 1165.3862
1127.4608 1464.4604 2420.7244
1005.9844 1469.7706 1851.0212
289.25919 1441.442 2966.0708
1130.6655 1479.7706 1842.9072
679.48059 1494.7925 2891.8857
292.43268 1467.7938 2979.062
752.94177 1439.1082 2759.0251
361.54294 1452.6101 1241.0654
1115.2147 1421.5004 2343.5227
56.934387 1446.3611 1273.0811
1082.0317 1475.2051 2020.6947
318.9028 1469.7706 2935.365
156.52783 1477.7942 1379.1803
558.47314 1460.3358 3014.1941
636.17596 1479.7706 1231.5923
1115.2163 1402.1017 2305.2705
508.55334 1463.1642 1403.4498
819.51819 1403.0703 2986.7571
1074.2273 1471.7706 1522.1538
1102.7402 1418.4252 1497.7605
1186.5626 1466.3732 2300.2307
1168.8022 1401.1285 2738.5725
732.08649 1447.4442 1266.4723
1022.7567 1479.4368 1292.6689
64.035019 1453.6827 3074.2056
1036.8663 1469.7706 1947.6685
1001.0131 1437.6002 1864.9661
1173.3597 1445.7538 2781.9341
321.78342 1483.2683 2922.5811
1093.6953 1479.7706 2927.6594
980.91663 1478.1151 2469.2383
1125.1202 1471.7706 2909.0464
812.22858 1479.7706 2936.9126
999.03992 1466.6991 2525.9487
891.53198 1479.7706 1203.1848
774.23633 1450.4792 1552.6965
964.41785 1476.9861 2972.4043
574.52997 1401.6968 1295.0981
1114.9872 1451.4009 2303.0901
932.53949 1429.0289 2982.9221
745.974 1423.2815 2848.4763
382.10876 1465.7706 2933.9775
970.58228 1418.6846 2579.4758
559.21625 1411.8726 1421.2539
381.06564 1460.1511 3032.8403
201.74207 1400.1968 2979.2913
1086.5679 1471.7706 2947.0125
911.14258 1411.9596 1183.3002
1006.3896 1469.7706 2417.5632
1017.7236 1406.5522 1377.6897
741.68604 1465.7706 2884.8489
608.47131 1441.8976 3016.9829
1083.2999 1415.3633 2001.6069
414.05438 1497.9236 2984.5449
1236.6318 1416.8875 2771.6548
1043.0328 1465.4805 2036.9503
100.49747 1494.8315 2904.2776
587.82239 1454.8835 1343.7643
871.25659 1428.4724 2648.8027
1216.3577 1479.7706 2801.1699
746.59186 1415.8247 2816.0879
1006.0348 1401.2603 2511.8232
920.65198 1417.8029 2651.1223
392.7818 1441.5997 3031.6089
463.35034 1493.3317 1351.4385
197.23389 1456.2301 2979.7651
187.37607 1431.006 2980.8013
289.04739 1494.6644 2926.8638
763.45801 1407.8687 2920.2527
634.85193 1479.3927 1271.047
562.72803 1475.2523 2871.7959
280.64896 1471.7706 3016.2585
829.39575 1404.1393 1603.946
285.05453 1427.3545 1249.1046
826.21521 1453.196 2986.0532
734.07721 1479.7706 1215.4866
1072.3047 1465.5801 2896.1975
718.93353 1479.7706 1258.1246
135.53421 1410.1873 3066.6907
745.37091 1471.3352 1478.8582
