# .PCD v0.7 - Point Cloud Data file format
VERSION 0.7
FIELDS x y z
SIZE 4 4 4
TYPE F F F
COUNT 1 1 1
WIDTH 1604
HEIGHT 1
VIEWPOINT 0 0 0 1 0 0 0
POINTS 1604
DATA ascii
-524.12073 1544.7706 2518.2
-487.27136 1544.7706 2281.2751
628.2229 1587.2706 2458.769
348.68362 1545.7706 1548.6084
730.39148 1544.7386 2668.7761
431.89752 1444.3661 2983
-546.12677 1544.7706 2098.9241
836.39697 1545.7706 2078.4153
-189.21358 1545.7706 1387.3855
610.3938 1479.7706 2963.0027
-568.28967 1547.7848 1869.5667
-211.83578 1544.7706 2863.9927
566.59875 1514.7706 2800.5322
-474.49634 1545.7706 1843.9403
-158.44489 1479.2343 1267.6141
-752.80817 1459.5186 2405.2676
724.04913 1471.3015 2988.6416
840.87354 1504.7706 2962.6189
-602.80493 1536.8595 2552.1743
-5.164155 1466.0927 1334.6322
643.99438 1544.7706 2729.3748
354.38422 1452.7761 1335
-740.45898 1533.5216 1906.8004
883.19183 1435.5895 1848.4563
-643.6972 1503.8495 2559.2947
490.20129 1423.9359 1255
-530.37799 1479.7706 2960.9827
658.49481 1533.0054 2658.9727
406.96472 1545.7706 1572.4507
201.96391 1553.3488 2456.6392
-202.65131 1589.2706 2166.0298
917.2453 1479.7706 1958.9312
5.6114054 1412.1094 3047
280.30579 1443.5553 1335
845.10095 1500.8015 1817.933
243.65776 1434.5739 3047
837.40503 1544.7706 2406.7329
109.183 1544.7706 2881.9922
732.98828 1488.2123 1680.1743
-762.61462 1478.351 2612.1309
-469.60403 1544.4165 2801.8079
-396.74426 1460.634 2975
883.19183 1420.7083 1930.889
887.44312 1525.7006 2352.8501
-227.21805 1542.6976 1372.7749
714.05481 1407.9308 1327
674.02307 1587.2706 1870.3372
27.396765 1545.7706 2152.0481
813.69434 1544.7706 1892.1074
343.88193 1560.4255 2307.4578
-583.9278 1509.6738 2695.8569
133.84889 1545.7706 1947.225
-92.935898 1442.2599 1335
-204.18828 1586.9612 1384.3546
-709.86853 1420.7828 2089.8318
937.58228 1479.7706 1662.1733
-272.96878 1531.8273 2927.2686
960.91315 1476.3981 2411.0029
728.49017 1479.7706 1397.2615
341.33557 1562.1387 2519.6011
670.88995 1476.3407 2643.7712
-220.71111 1579.7942 2936.7095
72.58567 1545.7706 2526.9604
-659.22565 1468.4381 1264.6821
434.11902 1412.9513 1335
879.65918 1484.2754 2044.9598
-269.21887 1544.7706 1423.6322
-127.81882 1544.7706 1379.7695
895.19183 1432.3604 2619.5488
573.87292 1479.7108 2990.6226
622.98889 1506.6665 1513.8728
75.227043 1545.7706 1405.1899
277.21124 1545.7706 2236.5278
663.41376 1544.7706 2577.1052
-662.41248 1490.5005 2529.0559
96.202095 1574.2706 2421.8147
-760.80817 1459.9027 2519.0029
641.0141 1544.7706 2578.8115
883.0686 1523.0179 1935.8993
519.44592 1544.7706 1475.3875
13.998799 1479.7706 1314.7074
315.88739 1544.7706 1590.7491
-823.7674 1477.9608 2443.2449
22.217619 1544.7706 1513.1149
-811.23969 1479.7706 1684.715
-211.50975 1545.7706 1775.2843
887.19183 1420.3129 2730.2349
-471.4613 1479.7706 2998.6213
-811.14172 1441.5485 1255
534.71155 1521.739 1452.6033
-63.398994 1545.7706 2604.593
352.47992 1569.5911 1591.1373
-644.60974 1452.7357 1335
313.54037 1471.7706 1279.6749
-741.42456 1513.8593 2404.9514
-199.07982 1426.6775 3055
-208.54341 1584.4218 1788.2819
-709.17932 1545.7706 1842.0819
551.3869 1538.7936 1542.2742
20.072838 1544.7706 1896.3593
833.73535 1434.8486 3047
921.72168 1479.7706 1626.5382
395.18591 1545.7706 1680.3214
-244.24625 1471.7706 3001.1912
-732.80817 1443.323 2976.1025
385.04047 1545.7706 2650.1262
-647.28046 1504.7706 1331.4486
-265.46768 1545.7706 2654.2075
-621.94226 1479.7706 1384.8843
-220.18726 1545.7706 2025.5973
802.58405 1461.8771 1263
-733.65417 1437.1256 3046.6531
835.28101 1483.6741 2289.3945
327.18372 1544.7706 2925.4731
364.54797 1544.7706 2796.2888
-195.74156 1589.2706 2446.9519
59.346836 1579.2939 1905.3612
-304.90356 1479.7706 1293.4758
-224.06294 1587.2706 2342.3567
-218.11107 1568.0894 2595.1155
678.28595 1544.7706 1858.0494
-593.3645 1542.0862 2681.7336
855.83411 1504.7706 1571.642
-278.38892 1511.5098 2854.0427
609.83832 1477.8931 2710.8447
-467.61823 1544.7706 1943.1702
913.97681 1504.7706 2769.4319
-232.95073 1496.2017 2871.5356
-100.29372 1545.7706 2394.1548
-657.53632 1465.7706 1826.269
175.29349 1514.7706 2944.3643
895.2215 1463.9199 1622.7209
-640.12976 1587.2706 1853.1381
-207.10988 1548.7858 1810.5715
-769.21368 1479.7706 1628.8855
-544.03918 1437.7255 1608.5543
-615.83777 1402.2971 1327
765.16492 1407.6162 1327
-332.8082 1402.8633 2928.021
-511.04456 1430.924 3055
248.64122 1478.9738 2954.5713
-760.80817 1446.312 1561.4542
221.85284 1544.7706 1503.3552
887.19183 1458.3601 1631.1171
628.58368 1544.7706 2732.1211
-761.06415 1477.5609 2472.9329
-606.026 1438.7118 1690.7118
-256.62091 1545.7706 2757.73
225.80827 1587.2706 1869.7515
706.28998 1423.7245 1335
892.00751 1533.3594 1977.1436
-806.44061 1479.7706 2130.8132
177.62372 1544.7706 2015.8326
-537.09802 1545.7706 1657.5144
-98.557823 1589.2706 2389.8215
-688.96844 1544.7706 1846.2589
445.77777 1428.4896 1255
-752.80817 1454.8162 2759.7261
-558.75293 1490.3195 1689.8485
3.1588461 1514.7706 2975.0874
-680.75653 1522.4043 1945.3984
-341.98029 1545.7706 1699.2109
-396.16104 1544.7706 2472.9233
-352.79333 1503.4711 1418.5912
-221.33044 1544.7706 1407.5135
-336.33188 1544.7706 1582.4518
361.50137 1559.9829 2755.8638
895.19183 1452.8906 1879.4703
967.19183 1422.764 2221.4043
50.24577 1437.7836 1327
-349.22137 1479.7706 1307.2311
374.50818 1545.7706 2935.6379
195.10875 1527.6306 2990.1663
-47.283348 1545.7706 2757.0701
-227.29895 1426.4841 3055
349.60522 1587.2706 2469.5649
230.78519 1545.7706 1773.0573
-215.16473 1584.6514 2330.981
355.63943 1578.9032 1452.8875
523.09497 1545.7706 2229.4509
706.12494 1544.7706 1836.9998
-100.53056 1587.2706 2451.5728
-691.42065 1486.356 1623.6124
-824.80817 1403.6011 2263.1729
-320.66714 1497.6334 1401.1696
363.85425 1556.2922 2559.8389
-662.59778 1469.7706 1836.486
-116.6995 1492.7885 1400.2826
474.46399 1514.7706 2845.1606
379.80084 1496.4635 2866.1841
-228.16582 1547.3586 1510.5535
-221.11302 1585.6064 2741.9868
-819.30005 1504.7706 2820.8118
28.663126 1544.7706 2368.6665
211.88463 1471.7706 1277.1482
548.20917 1544.7706 1999.83
-819.25543 1504.7706 1449.7251
99.121422 1544.7706 2936.396
458.40222 1545.7706 2290.9282
-422.26111 1458.0411 2758.1423
308.46988 1544.7706 1581.536
-1.2278855 1540.1245 2989.3142
-99.845459 1558.9254 1934.1458
-645.83002 1544.7706 2571.2522
840.96088 1410.472 2555
-695.90332 1544.7706 2022.8209
376.95935 1545.7706 2515.1482
-669.07825 1547.7866 1843.9395
376.46725 1575.5665 1509.0164
-763.46472 1494.9192 2625
530.28149 1471.7706 2998.3184
962.4245 1468.9357 1257.9709
477.95035 1544.7706 2127.1316
662.9671 1518.8074 1656.5121
-550.92316 1544.7706 2619.1633
-638.85187 1471.7706 2991.3582
-772.44263 1444.4832 1255
40.904942 1447.7831 1263
354.4917 1549.7585 1423.5302
363.49008 1567.2026 2465.2
119.47116 1548.7002 2424.7434
459.28082 1544.7706 1881.1427
887.19183 1429.4176 2929.3054
10.944436 1544.7706 1400.0576
-811.31879 1504.7706 1586.7672
460.36734 1544.7706 1887.0994
-806.03113 1479.7706 2473.8186
749.70551 1545.7706 2250.4417
-799.70465 1479.7706 3029.2988
346.2648 1545.7706 1553.9257
-294.42868 1514.7706 1417.4694
-782.02661 1479.7706 1925.5488
-70.876656 1479.7706 3030.1062
959.19183 1458.1051 1720.8802
605.22247 1482.5167 2719.4946
704.9353 1444.2004 1711.1403
778.83319 1497.5894 2617.6011
-668.32794 1469.7706 2450.1748
91.129738 1544.7706 1911.9167
-763.13751 1469.4067 1616.0125
330.97696 1465.7706 2965.6121
623.50195 1544.7706 1640.6619
27.141115 1510.8856 1308.7395
-418.60638 1544.7706 2066.8445
-229.87932 1563.714 2451.4558
-121.99895 1544.7706 1511.6101
338.57269 1568.8256 2874.7615
903.53699 1545.7706 2261.0515
609.04834 1545.7706 2296.2844
-692.86749 1465.7706 1957.4235
-663.42078 1525.1805 2569.2119
-645.62158 1514.7706 2581.8765
-193.62798 1490.1316 2889.8701
24.032242 1418.9232 2975
967.19183 1406.6162 2582.0281
-82.489807 1547.1361 1873.9501
437.99677 1544.7706 1699.3516
463.1918 1447.5715 1364.7145
756.58679 1469.8173 1715.1554
958.61957 1466.6473 1958.7433
879.77588 1496.9978 2062.0532
-832.80817 1408.7518 1610.7748
-129.722 1544.7706 2628.7939
-58.598835 1544.7706 2099.7615
-166.21655 1465.7706 2907.4138
740.4057 1545.7706 1734.817
179.41954 1545.7706 1829.2023
-731.59448 1544.7706 1952.9832
261.42789 1545.7706 2313.3391
-219.23698 1562.0824 2688.9192
392.74146 1544.7706 1734.8367
967.19183 1413.1125 1710.7623
350.8017 1568.2495 1730.9537
791.97528 1504.7706 2805.8479
959.19183 1431.7246 2701.259
88.238609 1545.7706 2016.9692
959.19183 1448.9053 2623.0774
249.56227 1450.5027 3055
-828.57294 1474.3546 2681.9563
895.93091 1467.0269 2880.8384
-16.948727 1545.7706 2094.2393
308.95795 1544.7706 1388.2885
-0.36309692 1545.7706 1653.4731
-225.50487 1471.3058 2877.8228
959.19183 1416.1765 1495.3367
-670.63849 1421.1544 1327
295.27774 1540.6671 1349.8314
-673.72473 1495.8711 2398.095
127.03408 1544.7706 1408.8385
-225.19984 1583.8438 1520.2101
682.22382 1545.7706 1746.1521
320.48645 1469.7706 2940.147
85.967461 1589.2706 2417.1006
219.91112 1514.7706 2945.3767
330.32977 1544.7706 1446.6083
-596.97485 1514.7706 2629.4868
389.26901 1545.7706 2146.2747
369.10706 1551.8346 1997.2358
920.24292 1479.7706 1280.1182
-489.79297 1544.7706 2761.4231
678.63391 1424.5443 1671.0901
-587.9071 1514.7706 1704.037
348.11536 1573.3365 2079.7375
916.29938 1479.7706 1881.1254
969.49182 1444.2177 2980.7559
-228.79811 1545.7706 1480.6101
345.14252 1582.3065 2327.4131
930.02692 1471.7706 2424.2397
-741.99481 1514.7706 2089.1338
-636.41351 1527.8499 2484.1033
259.7894 1544.7706 2604.707
-609.42963 1531.0065 2660.7598
22.78964 1545.7706 2239.1045
-649.41034 1505.3832 2609.959
913.5672 1506.2556 2096.0505
192.05276 1544.7706 2568.2998
-412.65906 1545.7706 1947.2384
-104.90583 1545.7706 2035.8903
-206.01976 1479.7706 1272.6106
-752.80817 1465.4252 1828.7505
369.40442 1544.7706 2439.4771
123.32262 1545.7706 2181.7395
-602.15253 1544.7706 2558.7759
-444.62186 1544.7706 1542.8528
-773.83044 1506.3809 2051.4858
735.22534 1544.7706 2130.5667
121.68994 1578.7957 1875.6339
-88.90052 1545.7706 2705.7507
673.16217 1545.7706 2681.322
357.8017 1585.7706 2639.6238
96.6213 1545.7706 2764.8611
114.50523 1544.7706 2103.8933
680.34888 1508.5671 1570.6831
-830.64075 1471.4318 2839.957
610.00433 1450.6041 1327
824.62964 1445.9996 2551
882.61517 1544.7706 2294.7043
-211.8219 1558.6608 2071.1492
875.62109 1469.7706 2219.3828
449.98218 1545.7706 2606.2747
156.21843 1544.7706 2043.9014
-160.01872 1473.3813 2900.9255
-752.80817 1449.8748 2571.499
420.18069 1472.379 1332.35
705.06207 1529.6356 2701.3574
727.35992 1491.5405 1255
-377.16998 1544.499 2861.8293
752.41339 1514.7706 2549.9419
229.62717 1556.87 1855.428
887.19183 1410.9568 2410.7935
848.7677 1417.1721 1335
890.14612 1446.9946 2955
-123.69654 1440.4238 1263
589.52515 1505.1292 1487.1055
674.06458 1545.7706 2409.0154
-524.37158 1573.6737 1846.3778
467.38461 1514.7706 2865.8506
-576.48499 1545.7706 1975.6622
24.235905 1545.7706 1324.8547
-817.55109 1479.653 1500.9009
-87.509171 1465.6205 1393.5991
716.25952 1465.7983 2655.7266
-177.39072 1426.8933 1335
-228.14558 1479.7706 3037.9031
281.4158 1545.7706 1390.8502
-80.731316 1545.7706 2441.2654
-398.40164 1544.7706 2572.1787
775.09113 1463.8369 3054.9895
-42.712837 1450.9219 1335
-627.37915 1538.6436 2635.946
-484.62225 1545.7706 2146.7722
-584.91669 1583.8429 1867.1422
-527.23547 1544.7706 2170.1604
560.15631 1545.7706 2467.1704
-752.80817 1433.8041 1546.5392
855.47919 1514.7706 1931.9202
-719.97565 1514.7706 2128.55
715.95746 1560.5112 1884.2671
764.86609 1499.9637 2747.3257
-527.11273 1415.9072 1263
-824.80817 1434.3746 1708.0276
371.05844 1571.1571 1959.6385
-230.01904 1544.7706 2516.2561
-652.9704 1504.7706 1341.5781
319.30209 1544.7706 2347.5376
-747.30945 1504.7706 1472.5195
846.72656 1441.1129 2173.6558
-185.81444 1416.6619 3047
486.82111 1544.7706 1748.3497
611.4765 1545.7706 1780.1466
649.98505 1545.7706 2390.7224
349.12558 1587.2706 2142.886
763.35327 1442.7057 3055
313.62296 1544.7706 2016.8402
406.99652 1544.7706 1593.7902
818.50507 1512.8778 1827.0347
-326.44897 1545.7706 2236.5381
-821.21014 1479.0734 1595.4437
-136.10759 1409.365 2975
643.3631 1545.7706 2210.293
210.70834 1412.2164 1388.4816
837.29321 1468.1425 2984.4846
-700.66718 1462.4679 2019.2999
-586.56287 1469.1106 1334.0153
-481.81094 1545.7706 1527.8588
-440.65546 1514.7706 1527.3185
-22.526793 1578.7402 1921.7712
-210.77394 1585.7493 1826.1213
-752.80817 1404.9653 2170.4297
-599.55878 1546.0457 1844.8142
-277.07727 1545.7706 2859.6455
610.86371 1545.7706 2205.8066
-349.82877 1544.7706 1792.6234
-12.142198 1545.7706 1663.8767
-163.99001 1545.7706 2316.3025
-573.60907 1425.9148 1643.6804
-808.55902 1409.2119 2961.3
145.12643 1461.7112 2971
-840.80817 1423.6566 1303.9159
192.87979 1545.7706 1451.6892
-594.30597 1469.8718 1266.0083
-491.68604 1481.0029 1557.9873
-630.7019 1545.7706 2033.0458
-434.06714 1407.0334 1327
33.415142 1545.7706 1590.6312
959.19183 1400.3395 1363.2155
822.32605 1504.7706 1574.7168
-408.86938 1465.2656 2822.3718
-35.514721 1587.2706 1864.2494
728.901 1525.5634 2680.1455
-785.33917 1479.7706 2937.5649
-825.43127 1500.6189 3052.3425
-217.71396 1547.3026 2840.7141
-143.00252 1504.8313 2945.3699
202.41754 1479.7706 2997.1724
467.1918 1445.7611 2856.4353
887.19183 1422.8842 2140.4417
370.2178 1566.6703 2029.6755
-126.37949 1589.2706 2363.5356
-519.48499 1492.0898 1585.266
-832.80817 1446.2631 2443.1545
-721.74597 1473.3669 3051.7524
-164.32018 1544.7706 2741.635
21.180468 1507.8433 2933.4316
173.13832 1544.7706 1492.7582
-391.15918 1544.7706 2239.7087
-606.37616 1544.7706 1886.89
409.09155 1471.7706 3032.6182
867.3811 1495.4918 2438.2297
-229.67828 1569.6959 1767.4609
-781.18884 1479.7706 1682.0923
434.92065 1545.7706 2592.9675
479.32321 1545.7706 2609.5532
-789.34479 1479.7706 1442.9323
-205.80521 1545.7706 2813.0449
-314.68375 1414.1571 2975
868.15704 1504.7706 2963.9858
-324.41977 1405.6813 1484.1871
375.34586 1544.7706 2504.2329
-824.80817 1449.2944 2342.2981
-109.35313 1564.8258 1944.4067
-186.82715 1589.2706 1997.969
-271.48019 1545.7706 1719.7959
-22.307016 1544.7706 2529.6094
42.935879 1480.2543 1335.5619
260.06897 1544.7706 2231.6345
691.72003 1514.7706 2674.3674
873.61536 1504.7706 1323.2018
-107.09038 1545.7706 2443.6672
-587.3252 1507.3416 2694.3367
-174.74995 1518.807 1350.6412
-93.171562 1567.6499 2433.0952
-752.80817 1417.6155 1854.2986
-72.434074 1544.7706 2965.5806
642.74872 1544.7706 2755.0308
168.91985 1401.5715 1384.9312
-574.94299 1544.7706 1776.4814
906.83368 1541.7169 2234.4441
120.87666 1509.5802 2971.0264
597.79364 1545.7706 1976.8661
-50.249054 1545.7706 2305.6467
-433.1207 1544.7706 1624.6781
-100.08373 1544.7706 2883.3865
-832.80817 1415.2789 1661.2808
82.852486 1545.7706 1359.65
146.67143 1518.2255 2996.4932
701.64648 1504.7706 1314.4186
-726.68018 1539.6622 2443.7512
259.73227 1465.7706 1372.1715
250.57393 1545.7706 2018.2582
851.63965 1465.7706 1859.9318
-16.792763 1544.7706 1967.6813
119.91499 1545.7706 2986.0872
-692.30615 1485.7742 1393.941
778.50067 1445.1521 2474.4736
-788.76025 1479.7706 2539.564
824.34631 1458.5358 1263
-208.73151 1547.2706 2362.4187
478.02954 1545.7706 1966.4364
895.71582 1477.6975 2072.6897
-425.84369 1545.7706 2358.6865
765.60669 1436.3153 2555
-760.16028 1509.6372 2333.9268
-167.66762 1418.1332 3055
960.89178 1474.317 3042.3884
-663.47662 1521.8563 2577.2822
873.49182 1428.3613 3014.1091
-726.99353 1482.1134 1951.4652
-742.61865 1544.7706 1948.671
298.76904 1537.5275 1342.3566
-566.86932 1446.4875 1638.2941
294.24536 1545.7706 2650.6099
66.44677 1469.7706 1358.1149
-411.81058 1585.7706 1855.5199
-785.65454 1415.7195 3043
-599.79919 1406.8533 1750.7472
-608.97772 1561.5509 2446.9055
775.49835 1444.5601 2473.8716
-232.88628 1419.7858 1335
-513.06171 1518.0354 1547.8555
-107.69298 1545.7706 2406.1003
-479.87708 1545.7706 1983.1987
-546.4859 1570.9614 1847.6124
-737.90717 1541.3953 2410.823
596.07135 1544.7706 2800.8455
599.16876 1444.9399 2776.0713
-3.6858487 1587.0228 1854.8699
249.28018 1544.7706 2166.6953
895.19183 1411.9305 2692.1206
525.26617 1443.0681 1263
-205.32173 1544.7706 2045.962
-109.53411 1559.0405 2365.407
785.83295 1495.4512 2549.7524
843.75806 1453.8407 2083.2383
-193.28999 1471.7706 1299.4081
-181.57864 1556.0199 2033.3948
904.82025 1471.7706 2398.6318
-760.80817 1446.2504 1449.6975
-388.29468 1538.4355 1521.1508
965.40594 1470.683 1433.1144
-417.12866 1454.6296 2766.3447
500.32632 1544.7706 2867.8267
-425.64517 1544.7706 1942.9685
959.19183 1444.6235 2652.1453
560.16125 1544.705 1475.918
327.15649 1544.7706 2598.0203
504.98267 1545.7706 1750.2629
895.19183 1442.5151 1964.4918
-774.74225 1534.0596 2210.5698
819.10779 1558.6099 1885.5051
883.19183 1405.7616 1990.2941
-185.16927 1579.9646 1871.9507
-336.39566 1545.7706 1430.9028
-129.7993 1583.3259 2001.4526
-182.77065 1554.45 2035.6548
7.1119189 1494.593 2972.5928
-765.35101 1470.8972 1847.9215
693.64343 1522.7585 2722.0442
353.65659 1585.7706 2569.4631
741.47076 1427.5903 2551
471.72784 1442.6877 2975
18.753944 1475.9935 2980.874
764.94287 1544.7706 2538.9092
-641.09192 1535.254 1694.5708
636.84351 1545.7706 2203.7778
-789.44531 1479.7706 1701.2301
934.95996 1479.7706 1679.3546
-322.43539 1506.5322 1479.2971
223.04152 1545.7706 1803.3409
-201.02472 1545.7706 1844.2599
-645.57892 1544.7706 1940.9886
382.89151 1544.7706 2088.0713
-543.74927 1496.8522 2634.8884
-736.42798 1504.7706 2754.2656
-211.5468 1553.4535 2048.2295
308.02444 1418.2363 2893.554
209.51118 1585.7706 2454.5654
-707.61285 1514.7706 1997.4014
-125.79159 1545.7706 2507.5188
346.93939 1558.4017 2177.7097
-445.00085 1544.7706 2730.4146
-44.716648 1423.9469 2975
-811.70197 1479.7706 1586.3622
340.57495 1559.85 2582.9688
216.30481 1544.7706 1947.3237
33.153706 1523.636 2994.1772
-43.032867 1545.7706 1628.5249
817.61163 1415.3552 1954.0359
-599.06793 1519.6071 2674.7939
-183.34418 1544.7706 2287.4517
71.068153 1514.7706 2973.2476
240.64871 1544.7706 2471.291
-680.79272 1513.5314 2364.4751
357.24304 1589.2706 2082.6909
965.82935 1479.7706 2906.2224
617.0238 1544.7706 1683.0781
292.85449 1544.7706 2879.2456
62.566799 1544.7706 2344.092
-218.52811 1585.7706 1714.924
-615.58759 1532.7419 2525.5476
-148.67538 1545.7706 2374.4097
240.10686 1469.7706 2934.0378
626.78094 1514.7706 2774.3201
-114.93941 1589.2706 2341.7788
-832.69086 1405.2069 1342.9897
842.35846 1479.7706 1391.9714
909.33612 1479.7706 1282.0388
270.733 1415.4108 3047
-182.78632 1471.7706 3032.4402
769.30438 1500.0759 1735.3099
-424.61951 1513.1633 1467.2272
114.89465 1545.7706 2499.3496
-79.689743 1545.7706 2469.8447
724.21869 1400.2809 3047
-824.80817 1428.517 2447.3916
-168.58633 1545.7706 1722.1294
-328.8082 1460.4598 1442.1554
-364.95166 1545.7706 2851.5549
503.22461 1491.777 2849.1753
641.64069 1445.4584 1335
804.6507 1480.3225 2508.5942
-463.34665 1470.0479 2779.9526
211.95764 1491.3959 2921.2659
149.67932 1545.7706 2238.6079
374.20721 1544.7706 1484.767
-832.80817 1430.5819 2140.6089
690.43604 1470.017 2976.4465
-732.52765 1479.7706 1389.7915
-767.88293 1432.5856 1261.3
340.98581 1565.5354 2548.741
-717.04694 1465.7706 1891.049
371.24725 1547.5103 2032.4866
347.6969 1545.7706 1659.3373
-1.0727568 1544.7706 1346.488
676.50098 1414.432 1668.4155
-329.44186 1443.9352 2826.624
174.81343 1465.7706 1371.0764
-591.9176 1545.7706 1861.2222
-347.37866 1512.9198 2815.4851
408.78333 1544.7706 2822.8948
696.39386 1544.7706 1654.0702
533.80463 1545.7706 2279.0242
748.505 1449.8627 2534.446
882.33014 1512.7795 1929.6119
873.49182 1430.3635 3018.8362
582.7312 1544.7706 1936.7861
-504.29288 1544.7706 2207.3533
775.54071 1426.0492 3047
-141.97997 1541.1235 1337.6729
541.57867 1545.7706 2559.1257
935.88062 1479.7706 2511.2031
850.30884 1544.7706 2447.2761
-824.80817 1449.3329 2529.5752
897.25555 1469.0093 2558.374
141.93793 1569.9757 2421.4851
-748.80817 1439.0923 2037.7163
-649.07281 1465.7706 2489.5059
-52.916328 1545.7706 1749.4089
-760.80817 1420.3827 2743.4338
-216.44736 1585.7706 1863.7703
632.4071 1545.7706 1776.9879
-134.26903 1544.7706 1736.9315
-150.43355 1587.2706 2448.0706
401.62643 1471.713 3039.2896
384.7684 1545.7706 2775.4307
448.97687 1544.7706 1882.6899
841.23004 1521.906 2220.1511
-273.02209 1544.7706 2239.7566
-188.29478 1545.7706 2316.5547
959.18616 1477.4333 2508.677
-752.80817 1464.9691 2237.2563
-78.362267 1545.7706 1449.4442
72.19677 1533.3202 2994.8789
-224.11444 1544.7706 2908.2351
127.46453 1504.683 1308.3417
-802.04248 1471.7706 1841.016
120.23099 1440.85 1255
-442.52692 1545.7706 1587.0909
-636.01654 1470.6343 1825.0327
744.10223 1484.8481 2617.5176
339.38232 1544.7706 1695.4016
-267.23114 1544.7706 1403.7607
959.19183 1424.5563 1387.7124
-682.24292 1565.8569 2446.0261
-818.61884 1479.4838 1656.3707
550.32574 1544.7706 2668.2041
918.19299 1479.7706 1372.1526
265.85028 1509.8689 2977.7722
421.7413 1544.7706 1803.1246
-710.85144 1469.7706 1913.9019
-697.56549 1479.1857 1322.6927
-328.8082 1444.7632 2960.3193
576.88922 1545.7706 1677.7551
-671.74756 1436.6619 2403.9797
934.90015 1444.4592 3048.7
126.86401 1544.7706 2605.5603
784.83655 1462.6296 1255
389.95465 1557.3291 1878.854
-611.16266 1545.7706 2248.6052
-88.907822 1545.7706 2313.448
174.95584 1545.7706 1774.0306
-177.54082 1587.4088 2210.7375
883.19183 1463.5981 2067.9121
-758.43213 1475.7434 2319.1802
887.19183 1451.0962 2459.9502
20.399975 1429.5736 2933.3928
201.3313 1585.7706 2451.9243
959.19183 1451.9833 2225.9099
-8.3975773 1545.7706 2003.6578
-292.96533 1469.7706 1448.2842
284.04776 1545.7706 2021.2965
838.9624 1544.7706 2421.5332
-2.4237664 1544.7706 2345.9766
347.40707 1587.2706 2764.1526
40.728497 1544.7706 2588.5579
397.57455 1545.7706 2244.0505
902.59735 1543.4716 2168.5593
-428.4628 1514.7706 2829.8606
-754.99762 1471.475 2771.7378
179.69034 1574.276 1854.8286
-661.44202 1479.7706 3016.9807
164.14383 1544.7706 1328.709
-824.80817 1431.8086 2134.99
589.51392 1544.7706 2285.1934
-350.46909 1423.4053 1327
-639.79456 1530.782 1694.3959
-824.80817 1437.1321 1964.7767
-302.19064 1545.7706 2637.4077
858.06464 1469.7706 2039.7146
887.19183 1421.9631 1952.2482
-641.11737 1477.0479 2567.9763
-596.93109 1479.7706 1300.8279
421.34857 1544.7706 1457.4254
-257.86935 1469.7706 1409.9067
212.45125 1510.3999 1388.8339
39.202103 1545.7706 2914.354
239.09407 1475.6202 1260.5007
-266.53903 1514.7706 1409.7122
-92.017601 1545.7706 2314.5547
631.125 1545.7706 2767.6099
-824.80817 1409.0966 2855.3179
280.65396 1469.9209 3043.9185
422.0723 1507.7993 2845.9631
-579.14148 1545.7706 1984.3641
955.78156 1479.0436 1494.5712
-730.03418 1416.3834 1327
-680.09778 1504.7706 1574.1249
-560.96106 1582.2147 1847.4387
-824.80817 1419.8345 1983.4055
723.02887 1423.4871 1738.594
-105.97442 1553.0002 1872.9014
-514.78119 1544.7706 2116.7634
828.5083 1482.1472 2453.9719
671.37823 1470.0297 1666.8275
-71.751953 1465.2939 3046.697
-36.744232 1544.7706 2201.2781
-113.45131 1545.7706 1461.6013
251.19023 1544.7706 2802.3584
-226.02533 1545.7706 2557.4258
-778.51538 1479.7706 1460.9288
846.40503 1479.7706 2858.0466
887.19183 1456.1588 2924.6865
588.13007 1514.7706 1517.6721
602.21033 1544.7706 1514.7681
643.1991 1545.7706 2347.1555
511.86728 1432.9456 2792.1458
356.38739 1587.2706 2549.3401
369.42505 1574.203 1970.7446
967.19183 1470.4923 1278.3312
-650.48962 1544.7706 2084.5579
-522.37524 1448.7792 2665.3801
-61.165268 1423.1096 1335
562.79669 1453.2322 1504.4714
212.15764 1545.7706 2108.1282
-213.32262 1589.2706 1969.4794
-226.34959 1587.2706 2433.7756
-563.31293 1479.7706 3028.7729
-760.80817 1429.6626 2781.96
865.64075 1505.9564 2442.4973
-744.44781 1469.7706 2478.4641
-111.20932 1545.7706 2484.6135
-832.80817 1428.6093 1581.1877
-702.66138 1437.1707 2030.6094
-687.31256 1434.0989 2339.8091
4.231153 1448.349 2932.3516
-117.42466 1471.7706 1276.6708
-99.259552 1589.2706 1928.7407
-678.19098 1523.6187 2550.4329
-728.53918 1465.7706 2178.5049
-423.67142 1459.9604 2761.0181
404.60031 1544.7706 2712.9829
744.83307 1415.4707 2975
184.76411 1544.7706 2214.8242
333.20941 1544.7706 2574.3975
945.62469 1479.7706 1526.1685
943.60571 1479.7706 2666.1658
-733.47662 1514.7706 2244.4622
-703.65338 1497.8362 1799.7014
960.89178 1452.9805 2994.6304
-832.80817 1428.0001 2613.3687
-91.156372 1544.7706 2641.0369
-2.2304564 1437.554 2975
-761.20984 1465.7898 2637.4116
204.31387 1537.8455 1387.2476
228.27078 1544.7706 1811.623
-662.2771 1514.3898 2422.4119
794.30151 1509.2427 1881.3293
-734.26654 1479.7706 3051.6345
-62.544682 1474.8217 2964.468
-307.85434 1544.7706 2506.2983
-739.0578 1504.7706 2665.0574
-202.14439 1551.1472 1389.8684
541.67914 1544.7706 1523.0142
-246.09615 1514.7706 2902.6111
527.09595 1435.296 2780.9631
883.19183 1400.7006 1878.5372
355.56516 1553.4529 1459.0753
-824.80817 1409.5012 1540.7803
950.88678 1471.7706 2616.1145
840.27216 1542.5249 2288.5166
-761.66663 1513.1479 1981.6843
312.82709 1424.6727 2895.2422
-624.99585 1514.7706 2584.6387
552.57941 1418.6234 2765.5364
-189.7164 1587.2706 1999.2616
-204.87207 1569.3018 1617.1191
819.7713 1513.7964 1834.8369
-128.38843 1452.7576 1335
389.81052 1544.7706 2652.0923
217.73906 1587.2706 1917.6733
265.28644 1545.7706 2271.2363
329.46014 1589.2706 2360.8062
-588.98804 1449.3311 1739.1141
641.01141 1415.7106 1255
689.31122 1545.7706 2320.6807
500.05505 1435.6558 2848.8159
18.357735 1544.7706 2773.0535
-206.85559 1557.6942 1657.3928
18.848864 1568.2642 2455.9414
-317.8887 1505.1356 2876.636
967.19183 1489.4908 3025.0701
613.60797 1479.7706 1398.948
-585.14966 1544.7706 2401.3628
946.1438 1479.7706 2375.698
-555.03351 1470.7695 1684.675
572.42773 1479.7706 2942.2009
-789.10168 1471.7706 1881.2209
-280.97726 1473.6052 1258.4857
662.18817 1545.7706 2104.123
348.4447 1544.7706 2879.2551
-276.25961 1544.7706 2247.1282
-536.86597 1545.7706 1856.5953
207.76373 1476.9116 3048.0183
71.610252 1544.7706 2379.3669
171.46967 1545.7706 2156.8972
653.42725 1570.6569 1862.015
-820.04114 1479.7706 2896.9114
-584.26569 1471.2205 1268.2345
-92.746506 1545.7706 1810.4955
-9.038352 1570.4929 2419.0247
-634.93048 1544.7706 2580.7219
179.22667 1545.7706 2809.9551
887.19183 1410.0673 1479.4413
794.71674 1514.7706 2514.4722
-232.55144 1587.2706 2877.3767
946.61401 1471.7706 1825.6329
-79.312378 1544.7706 2397.2554
-193.8176 1545.7706 1671.8098
-148.78638 1467.4818 2984.0432
561.52936 1544.7706 1929.8845
-801.29474 1471.7706 1772.6909
341.30884 1569.9596 2521.8269
-44.978592 1574.2706 1911.2422
555.76996 1545.7706 1527.8969
87.399727 1544.7706 2109.0649
54.644455 1479.7706 3009.8457
621.16016 1544.7706 2510.373
554.1781 1549.7352 2439.3652
-239.28384 1547.4039 2459.7544
10.927256 1544.7706 2732.8398
300.86588 1587.2706 2450.5356
-754.68445 1521.3457 1964.1056
-707.73987 1496.8289 1887.1398
155.10371 1544.7706 1397.6442
-648.04974 1544.7706 2271.6594
363.69156 1577.0621 2448.4148
40.135887 1544.7706 2225.291
889.30084 1545.7706 2172.7302
-774.19159 1516.0465 2067.3257
-619.20068 1504.7706 1382.3195
331.07114 1544.7706 2595.3865
438.70853 1544.7706 2611.447
885.0047 1479.9924 2142.5691
854.09436 1494.8805 2385.29
-704.22424 1465.7706 1892.85
843.69861 1502.7454 1641.5068
-531.71057 1581.0367 2426.3315
446.98068 1500.1691 1396.9343
-760.80817 1440.1268 2099.2561
-313.75131 1544.7706 2256.4341
-270.71692 1501.7113 1377.4242
311.0372 1589.2706 2045.3176
-704.01495 1479.7706 2993.9751
-786.93829 1471.7706 1758.009
-139.32088 1544.7706 2838.3145
-393.20074 1545.7706 1663.408
770.63934 1545.7706 2444.0447
-132.59013 1465.7706 1352.1407
-452.17609 1537.5764 1488.7646
232.37546 1544.7706 2685.1426
-421.02942 1471.0651 1322.2059
-794.25989 1479.7706 2810.0662
102.95248 1430.2443 1376.0566
698.03937 1510.1288 2608.2524
-80.492912 1544.7706 1836.9333
770.48822 1509.162 1825.2244
152.00348 1499.1729 1341.5104
211.68787 1431.4944 3047
910.26459 1479.7706 2863.8508
115.49815 1479.3665 1376.6829
257.06055 1476.0468 1357.2964
-636.86694 1505.693 2575.3184
340.7583 1587.2706 2216.3372
-708.06946 1469.7706 2495.1479
672.28235 1545.7706 2462.571
-176.37253 1589.2706 1918.6324
789.39618 1571.8198 1883.6484
219.54889 1574.2706 1950.4242
371.09222 1578.6554 1831.8466
-191.28957 1428.4777 1335
530.77856 1492.3798 2778.2588
881.88324 1469.7706 2138.7017
821.42407 1500.9828 2542.0713
883.19183 1464.6005 2246.6201
-407.25668 1451.6879 1488.9379
758.24933 1459.1665 2983
-19.70632 1544.7706 1638.8613
0.90395224 1544.7706 2660.4695
967.19183 1456.7407 2023.7242
834.32648 1544.7706 1923.0388
323.10272 1567.9058 2049.4749
-377.8461 1412.3602 2795.322
-559.80853 1544.7706 1736.3752
65.622444 1545.7706 2517.731
296.17044 1544.7706 1617.2736
-738.09955 1504.7706 1661.2141
853.43036 1425.9958 3047
895.19183 1433.5311 2167.0027
-760.80817 1450.2891 2081.8196
-31.924305 1465.7706 1347.7404
150.24045 1545.7706 2026.6205
337.09268 1489.7371 2929.2385
-271.23041 1435.3922 2857.49
-752.80817 1458.787 2807.4529
883.19183 1451.9147 2178.3345
887.19183 1412.512 1397.8451
610.77948 1572.8549 1883.0046
354.78363 1501.1064 2952.6558
-406.76752 1504.7706 1307.754
420.07306 1444.2601 1255
88.811859 1544.7706 1485.1642
140.01216 1544.7706 2408.4158
-812.11914 1471.7706 2583.9048
926.03271 1404.5718 3048.7
-158.85274 1587.2706 1908.6908
-511.47809 1544.7706 2674.3198
-199.16692 1587.2706 2325.8716
-495.96454 1544.7706 2430.1543
-163.05885 1544.7706 2864.4653
887.19183 1420.7157 2023.7899
-521.35986 1545.7706 2298.2034
-578.22504 1505.4542 1652.8451
729.57971 1468.7926 1255.8228
522.84845 1524.9244 2860.5381
-390.65506 1545.7706 1455.2737
913.06915 1479.7706 1833.0994
225.86237 1465.7706 1348.2388
200.81317 1545.7706 1545.843
-179.62715 1544.7706 1360.0696
162.55473 1545.7706 1422.4501
315.86279 1574.2706 2246.886
484.96082 1545.7706 1626.9561
-411.66995 1408.5813 1263
-37.522629 1417.0358 1335
-67.105019 1589.2706 2439.8137
959.19183 1400.3125 1656.7626
-358.3837 1471.3632 1454.2026
967.19183 1440.7666 1867.7517
-755.86932 1530.8865 1964.7831
901.53265 1471.4406 2561.3679
-350.47482 1585.7706 2446.9128
931.64532 1471.7706 2792.1191
347.75473 1589.2706 2268.2861
412.96072 1428.6344 2983
-786.15076 1479.7706 1363.3315
-38.22987 1544.7706 2854.3557
224.36012 1425.3706 1335
81.435905 1545.7706 1334.5808
89.341431 1471.7706 3029.6545
895.19183 1452.2318 2721.5884
-824.80817 1410.99 2118.8416
649.93994 1560.1931 1883.4746
-708.4624 1545.7706 2062.417
-91.693169 1436.9805 2975
-752.80817 1422.885 1661.0649
851.67218 1545.7706 1891.5437
845.32751 1480.2888 2666.8643
351.69272 1555.0879 1656.7196
-794.36401 1415.4364 3063
230.65131 1545.7706 1483.0002
883.19183 1401.1606 2379.6873
-752.80817 1450.8911 2867.6541
509.69788 1440.1508 1464.9238
849.17786 1465.7706 2423.5088
-680.34467 1485.0712 2377.1265
-381.32297 1544.7706 2462.1978
904.54156 1471.7706 2771.2493
393.76843 1544.7706 2400.0991
636.62201 1504.7706 1279.1731
769.3269 1544.7706 2563.7986
-428.60559 1404.4219 1557.0309
375.69754 1503.6581 2945.7019
479.44583 1446.9603 1263
-752.80817 1435.2216 1874.1796
-506.30588 1544.7706 2479.8101
2.6368268 1544.7706 1477.7003
321.70081 1545.7706 2581.418
370.35852 1460.1531 2870.3276
421.69608 1413.8591 2975
845.24609 1480.6493 2413.7073
-606.01788 1464.7115 2555
-198.39946 1544.7706 2223.0435
-398.05148 1550.8453 1849.394
398.04608 1544.7706 2073.4141
-755.38074 1504.6508 1685
-241.95107 1574.8999 2789.9377
590.67474 1545.7706 1885.4697
318.77359 1530.192 2889.8799
588.82849 1545.7706 1600.7556
-706.27191 1424.5004 2227.6956
-192.05368 1587.2706 1905.3201
-748.80817 1420.8584 1936.004
904.73157 1512.4923 2030.3416
-489.09433 1479.3828 2988.552
-677.65369 1504.7706 1357.7964
-514.89734 1544.7706 2331.0786
175.75655 1544.7706 1684.948
239.27391 1545.7706 1473.9865
368.23801 1573.4099 2194.6179
290.81699 1437.9349 2902.0315
-228.57762 1479.754 2990.8953
102.31797 1545.7706 1588.9127
733.54919 1545.7706 1735.7361
157.02425 1488.8995 1383.4161
-339.70279 1544.7706 2192.6201
833.18561 1547.2706 2435.3489
-248.59488 1479.7706 3020.2415
664.11719 1544.7706 1782.7548
-674.9093 1465.7706 2498.4575
239.74391 1545.7706 2144.4973
855.08606 1478.349 3045.1975
751.3327 1457.6035 1335
-14.161745 1469.7706 2957.95
-489.94693 1524.4751 2696.3525
-832.80817 1484.5416 1659.2435
949.70398 1471.7706 2903.395
711.38641 1544.7706 2636.8735
277.52582 1544.7706 2087.2144
618.02942 1471.7706 3014.6572
250.0929 1545.7706 1345.5104
636.70508 1545.7706 2214.5757
-242.92072 1549.2296 2870.1089
567.04248 1436.2239 1335
-87.247803 1471.7706 3025.7415
368.42703 1577.5481 2053.8894
734.38519 1488.0494 2627.8423
145.06725 1471.7706 1292.4608
-305.03149 1545.797 2453.8293
940.0827 1479.7706 2813.3796
-148.28493 1545.7706 2229.8577
-664.59796 1544.7706 2388.3369
200.66261 1545.7706 2832.4136
345.15387 1545.7706 2587.478
-175.41399 1573.7312 1872.0679
171.67577 1514.7706 2958.4973
292.69849 1546.9423 2315.4641
675.47504 1544.7706 1675.4583
-121.05229 1544.7706 2272.2583
-390.04343 1544.7706 1947.7478
86.177727 1545.7706 1905.1929
459.75229 1545.7706 1760.6141
-291.62729 1469.7706 1421.7812
583.91992 1544.7706 2167.2595
267.61234 1545.7706 2032.9591
-159.43198 1471.4758 1411.9224
-465.32083 1545.7706 2515.5466
-455.14816 1545.7706 1567.3191
-390.50797 1544.7706 1503.8293
233.65062 1544.7706 2293.8928
196.00301 1544.7706 2127.5647
887.19183 1431.2592 1629.2234
-525.92181 1406.4071 1255
-298.7663 1544.7706 1410.9894
-827.76459 1475.1631 2862.624
-248.10234 1544.7706 2083.2932
-134.1619 1545.7706 1777.6877
307.75342 1545.7706 1713.8486
-721.60229 1520.0011 2457.6411
19.859316 1546.2706 2427.2749
697.04663 1514.7706 1610.3844
-189.00653 1514.7706 2925.8643
754.76599 1545.7706 2487.665
940.19952 1504.7706 1530.2593
846.60913 1415.5472 2178.3638
-797.19708 1479.7706 1454.3092
-791.245 1471.7706 2641.3215
-18.786688 1416.9612 3047
-616.43463 1420.12 1702.3086
-689.12482 1545.7706 2416.4141
883.19183 1420.1812 2037.4833
-555.79382 1544.7706 1966.6903
-313.37888 1545.7706 1948.1943
-210.9267 1545.7706 1999.1316
743.10828 1544.7706 2109.0134
730.47119 1497.6543 2636.8721
-202.83556 1567.1929 1447.4517
-706.86023 1479.7706 1364.8284
70.788712 1544.7706 2952.7102
565.92212 1432.4175 1506.9105
-765.94312 1471.2007 1547.7745
685.00085 1490.8234 2690.7588
98.743683 1423.6631 1327
290.72736 1567.7649 2437.7034
840.935 1504.7706 2671.9216
640.82715 1545.7706 2672.8318
655.63428 1438.0237 1327
405.57452 1512.645 2899.5103
733.87946 1409.1608 1681.4397
-752.80817 1440.0297 2003.152
-385.67856 1544.7706 1600.127
-543.646 1438.2443 2975
-700.62622 1502.8837 2036.1029
-603.06372 1418.8922 1335
959.19183 1441.063 1754.1003
-150.33846 1514.7706 1358.2012
691.21515 1474.3461 2683.5547
-643.10437 1479.7706 2793.4917
-715.11224 1473.453 2400.2407
-438.00082 1545.7706 1507.1488
-662.17749 1579.1442 1844.7236
379.77118 1428.5258 1327
867.19183 1469.9749 2992.8994
891.03503 1473.9626 2071.8311
930.31512 1437.9321 1255
-794.38354 1471.7706 2525.6531
-283.07111 1514.7637 1413.5814
-203.3829 1438.8442 2883.3464
-240.78868 1462.0671 1327
134.51871 1544.7706 1698.5347
895.19183 1431.073 1584.389
-41.128613 1425.4955 2927.2385
843.52667 1402.0117 1327
353.18515 1582.6998 1657.3588
355.7359 1545.7946 2461.7588
-225.05434 1403.0798 2878.0127
-748.80817 1414.9913 1844.4426
898.0835 1478.9039 1995.2031
-733.40265 1469.7706 2329.28
-233.14497 1585.7706 2560.3047
408.80597 1542.7612 1448.4603
269.62491 1534.9894 1339.9056
-200.14821 1545.7706 1833.6411
786.48663 1456.4886 3055
-611.54822 1479.7706 2848.687
-681.36475 1465.7706 2430.0884
-638.14642 1479.7167 2480.3318
-752.80817 1431.5896 1409.6603
827.72314 1457.9713 2313.8369
397.07745 1544.7706 1497.3278
859.41132 1495.4459 2652.7805
-456.84854 1544.7706 2302.0325
883.19183 1456.9761 2530.3818
-216.4548 1551.6971 1851.5737
332.20435 1570.5391 1879.6609
-99.524971 1504.9532 1393.1715
93.123627 1445.9901 2931.3428
-52.495342 1544.7706 2769.3257
-754.94043 1545.7706 2242.0256
558.48694 1544.7706 2617.9456
-752.80817 1433.1678 2361.0398
315.0513 1410.9323 1415.4438
-468.51224 1545.7706 1791.4755
912.55713 1471.7706 1697.0457
22.203489 1574.2706 2419.9177
710.68311 1544.7706 2328.304
717.12219 1545.7706 2225.5935
-332.8082 1459.9346 2938.6018
529.19763 1456.5865 2779.4197
-228.70782 1564.8359 1686.6097
554.03644 1479.7706 1346.345
98.452164 1544.7706 2745.0581
-206.2603 1409.37 3047
-760.80817 1415.4902 2666.4741
779.55103 1497.0898 1837.8542
33.310394 1544.7706 2785.0369
-539.47949 1544.7706 1775.4841
213.51219 1546.2706 2388.5288
180.84023 1469.1552 2926.6687
429.64301 1469.7706 2850.8083
-655.76703 1514.7706 2477.689
112.7045 1495.9489 1308.4515
-262.46658 1519.4749 2927.3679
-201.52786 1471.7428 1270.8606
-618.56055 1544.7706 2103.7585
114.1791 1464.4839 1326.8582
-813.49683 1471.7706 2818.3997
31.261633 1544.7706 2145.5947
-426.01343 1577.1864 1869.0599
-239.13936 1544.7706 1554.9846
337.73453 1534.7225 1426.6409
613.78424 1544.7706 1770.1127
-765.22687 1526.9795 2266.2273
463.63959 1545.7706 2783.4546
-133.55333 1544.7706 1379.8083
-688.71637 1442.3236 1759
-634.15875 1469.7706 1808.099
-281.35019 1545.7502 1385.4999
25.981867 1545.7706 1797.1238
142.25948 1544.7706 1957.6693
316.00284 1483.2659 1415.7592
630.70447 1545.7706 1661.1677
-749.81354 1496.2148 2086.1746
-522.32507 1429.3607 1335
-130.08733 1544.7706 1984.1394
-447.39603 1501.2784 2930.4121
729.5213 1544.7706 1831.1401
-784.80798 1471.7706 2476.8728
125.38522 1415.0941 2975
-750.78259 1479.7706 3032.6841
-116.72851 1553.6903 2361.926
374.06546 1575.0575 2460.2051
895.19183 1456.2454 1946.189
-25.15741 1544.7706 1977.3698
191.76958 1545.7706 2710.521
-278.63284 1545.7706 2098.9329
892.40442 1453.9464 3055
-550.46802 1434.2836 1616.0071
-296.46356 1545.7706 1469.4109
-759.67023 1544.7706 2110.3137
-264.71387 1561.2362 1872.4961
-778.92133 1471.7706 2299.4348
484.62662 1544.7706 1606.3448
965.99103 1479.7706 2883.1487
870.76392 1469.7706 1868.9902
833.35931 1495.3545 2283.106
-283.45496 1459.599 1327
-545.48132 1545.7706 2005.0249
-643.68976 1587.0193 1865.712
-748.80817 1463.7861 2399.114
767.06335 1513.5643 1678.907
357.92319 1568.2498 2928.9934
595.21716 1513.5027 1494.6403
594.01801 1422.2445 1529.4856
-368.17661 1524.6788 2877.7559
279.18149 1544.7706 1974.1183
671.06329 1479.7706 2983.6963
-699.65942 1529.6033 1800.5704
-538.11475 1449.7677 1327
363.85532 1581.3324 2559.749
701.64056 1421.7979 2608.323
896.63062 1450.0253 1255
305.11066 1587.2706 2454.292
382.58542 1545.7706 2275.0342
895.19183 1412.2523 2590.5273
6.1253347 1514.7706 2941.7839
-447.91022 1511.7319 2826.0869
-405.69223 1545.7706 2105.4526
802.18585 1465.7706 1785.7333
31.372742 1561.0975 1874.5499
-732.80817 1465.1638 1306.613
273.68341 1545.7706 2696.6367
803.32446 1437.9808 1907.0836
913.39844 1479.7706 1532.3279
-732.90204 1499.4132 1255
-25.177963 1479.4313 3041.1426
-209.83997 1584.5677 2018.4077
573.89362 1454.3527 2799.4045
-709.35687 1496.5647 2226.9958
575.414 1523.7192 1567.3474
-100.99632 1466.8925 2913.3613
-240.62236 1545.7706 1384.0315
-406.36673 1545.7706 2318.9778
854.17676 1434.9628 1327
-380.08768 1455.4758 2793.7937
-328.8082 1445.4658 1372.9152
568.41754 1545.7706 2468.063
913.12134 1471.7706 2067.8638
-235.41554 1469.7706 1403.834
905.94257 1479.7706 1511.9938
-529.64899 1489.6989 2716.958
-760.80817 1438.6667 1947.1328
967.19183 1481.1124 2690.0046
-448.47635 1420.0427 3047
140.80963 1544.7706 2506.4819
-350.77106 1570.4702 2428.5032
-116.69633 1580.6552 2324.0498
192.52786 1479.7706 1295.9138
326.59042 1424.6108 1339
149.89551 1538.8901 2931.6428
-286.19263 1545.7706 2310.292
-274.75446 1545.7706 1477.347
699.65485 1544.7706 2660.8901
895.19183 1413.3203 2472.7126
677.59863 1544.7706 2675.5249
-17.743118 1447.6432 1335
194.33905 1510.6465 1347.0739
-93.376907 1415.692 3047
358.25562 1567.6346 2901.2976
115.40679 1476.7374 2981.6396
-642.65271 1513.7854 2616.1614
338.34723 1546.4016 2110.6733
670.2254 1545.7706 2722.1526
375.74313 1465.7706 1416.2369
424.9856 1545.7706 1871.7896
-620.98956 1450.2107 1335
887.38519 1464.9917 2043.3552
-87.314743 1406.55 1255
198.8123 1544.7706 2681.7927
-627.84833 1504.7706 3042.1152
-238.58646 1544.7706 2458.366
337.66736 1566.8477 2825.2095
635.99292 1545.7706 1882.5204
-296.34961 1544.7706 2886.498
665.77173 1544.7706 1685.7825
829.30261 1465.7706 2453.4895
515.79987 1422.203 2838.8457
40.886074 1587.3511 1905.437
-701.35339 1476.0884 2041.3085
-577.53046 1479.2446 2987.679
50.075298 1545.7706 2635.8633
-725.17419 1465.7706 2386.5422
318.94278 1545.7706 2222.8381
-752.80817 1404.2732 1850.6897
32.265888 1565.1091 2429.5664
-824.80817 1455.6727 2102.3364
793.19495 1544.7706 1800.3746
-169.28865 1413.2762 1255
-448.08496 1544.7706 1957.9904
-585.79987 1544.7706 1925.339
-371.43759 1577.79 2449.7568
30.051353 1545.7706 1864.134
959.19183 1439.0811 2864.6897
607.06519 1434.7278 1596.3821
-824.80817 1440.2731 2442.106
834.60852 1544.7706 2072.3142
295.04608 1545.7706 1831.0056
-372.51877 1545.7706 2724.4265
469.96005 1514.7706 2870.3999
-650.19159 1544.7706 1780.4147
157.19939 1544.7706 1550.052
817.09204 1504.7706 2827.5952
-188.92725 1589.2706 2121.7861
-179.87265 1589.2706 2059.0474
219.09418 1493.7313 2960.7263
61.234581 1545.7706 2752.6731
-629.01965 1479.7706 1527.2904
-799.849 1446.8866 2961.3
-691.79889 1544.7706 2022.4158
603.44879 1544.7706 1650.8175
324.25244 1545.7706 2925.1384
967.19183 1429.2156 1700.6273
538.59808 1545.7706 1553.9702
632.28162 1402.8274 1335
-752.80817 1441.3564 2840.876
-777.68817 1530.3369 2149.7205
725.22766 1544.7706 1842.1238
967.19183 1454.5671 1454.8667
378.30478 1544.7706 2148.5471
73.604385 1443.9158 1339
-446.62433 1545.7706 1830.4226
479.57751 1544.7706 1458.245
-760.80817 1412.1903 2621.5498
-49.452419 1544.7706 2816.8667
-660.48529 1504.7706 1554.8876
326.15015 1514.7706 2930.863
-218.28644 1557.5237 2609.7266
-486.07367 1544.7706 2482.3345
351.5033 1541.7415 2885.542
835.44354 1479.7706 3045.7056
-564.17279 1504.7706 1491.7789
670.77356 1504.8038 2643.9141
68.53772 1466.8092 3046.3955
887.19183 1435.7527 2338.3391
-694.79279 1504.7706 1553.6716
-824.80817 1434.8848 2881.3735
793.18146 1435.8513 2439.5366
11.70633 1545.7706 2196.0803
814.45996 1445.2572 1755
470.51089 1547.2706 1884.1891
968.08276 1424.0309 3042.5
434.30411 1471.7706 3001.7383
367.64423 1545.7706 1962.8101
-544.70636 1544.7706 1884.2274
730.76917 1455.7252 3047
881.63483 1485.382 2080.3591
467.1918 1462.353 1399.6373
967.19183 1428.7533 2187.1501
-252.86728 1479.7706 3011.6724
589.75128 1544.7706 2410.0574
415.71384 1503.8599 1381.9465
-680.58179 1545.7706 2168.2886
373.94864 1549.5607 1593.8704
-184.61278 1588.3024 2164.1208
660.20416 1479.7706 1283.8165
-401.39334 1544.7706 2459.9883
57.22282 1545.7706 2259.0398
864.83173 1504.7706 1379.3569
-429.90771 1449.4363 1554.2148
-358.23621 1471.7307 1332.6803
-55.038128 1454.1995 3055
346.96185 1545.7706 2200.0618
-361.57135 1544.7706 2433.3875
-682.63342 1544.7706 2264.3567
887.19183 1436.219 2146.7034
-334.55148 1545.7706 2305.0522
908.16937 1520.8398 2223.4434
-182.27823 1460.4672 3055
-237.17265 1578.1188 2391.8359
463.1918 1417.8708 2954.0745
-548.98041 1424.4158 2632.9785
-77.340714 1545.7706 1719.6943
-207.30461 1561.2058 1694.8021
-242.92719 1545.7706 2049.7971
-28.113882 1544.7706 2212.4243
471.58627 1583.4454 1879.8337
-751.47253 1504.7706 1597.0859
49.646236 1553.5612 1876.2693
329.51913 1546.7371 2073.0276
704.66168 1458.1759 1710.766
-306.23749 1469.7706 2848.8179
642.21606 1417.0637 1327
-144.35054 1544.7706 2959.2617
-109.76566 1544.7706 2267.1003
-727.22174 1469.7706 2180.3245
-725.60657 1469.7706 2012.5332
-40.007881 1549.7538 2432.2334
-453.01251 1545.7706 2487.8655
171.87685 1448.6588 2927.7864
-681.07526 1446.8572 2363.4878
-88.958839 1544.7706 1759.2617
-752.80817 1417.4543 1435.0186
-220.33076 1469.7706 2968.5491
94.202385 1556.0684 1876.8042
-363.0842 1544.7706 1548.9961
466.90598 1545.7706 1830.1448
-303.44348 1502.6782 2884.0193
123.61928 1544.7706 1350.8303
72.875496 1580.6742 2455.0898
-466.45898 1529.2594 1506.5321
803.61609 1478.8521 2515.5413
-809.4281 1471.7706 2813.4485
-437.55112 1514.7706 2811.7231
204.75056 1574.2706 1929.4486
6.2102838 1544.7706 1532.1761
557.23785 1430.585 1497.597
-752.81311 1504.7706 2736.5464
694.74133 1504.7706 2889.9934
607.09924 1544.7706 1817.5383
-233.2796 1545.7706 1871.6732
100.53733 1545.7706 2838.3325
857.89014 1545.7706 2299.4753
175.16066 1574.2706 1904.4419
846.78033 1484.4912 2665.4114
-707.84192 1479.7706 3035.6648
-40.091984 1473.5454 2978.426
259.46646 1587.2706 1936.5813
-51.690136 1546.3702 1907.2617
-460.76556 1514.7706 2794.1936
780.67859 1545.7706 2604.5562
32.226803 1544.7706 2505.2061
-773.53485 1471.7706 2673.6951
809.02783 1504.7706 1478.8868
-191.24605 1452.5751 2975
429.1463 1545.7706 2913.0527
128.91238 1514.7706 1336.7152
377.81647 1544.7706 2427.5295
-745.73602 1498.3187 3055
371.36655 1546.2217 1963.8505
-225.10689 1469.7706 2890.4451
341.04654 1585.7706 2838.2419
164.78764 1574.5601 2388.7771
916.0827 1504.3389 2161.2473
510.18289 1440.9047 1513.2826
-26.572729 1587.2706 2434.0454
-701.99622 1469.7706 2359.0847
-328.63455 1545.7706 2467.1414
-750.91547 1544.7706 1999.7078
-746.84015 1498.4067 2057.5208
905.70837 1479.7706 1811.7562
-215.5675 1513.6359 1428.1154
-484.62445 1479.7706 1315.4445
-443.82019 1545.7706 2298.1536
317.75745 1470.7316 1374.4081
-773.97986 1471.7706 2034.8671
-710.76416 1443.4996 1335
-516.02533 1544.7706 1837.1042
-442.77228 1405.3964 1515.6775
-824.80817 1460.3538 1969.3953
676.98114 1544.7706 2152.4343
936.83942 1479.7706 1563.1671
-544.02075 1544.7706 2396.031
-212.77863 1585.7706 1739.9132
-824.80817 1450.4706 1419.1149
369.61337 1479.7706 1274.3165
703.77386 1479.7706 1354.4434
509.06189 1544.7706 1562.8921
967.19183 1424.3562 2976.1721
-332.8082 1466.986 2914.7212
681.32507 1515.3024 2735.3306
832.45844 1400.2373 2004.598
365.3551 1459.8716 3055
-288.5105 1448.3529 1327
-438.24405 1545.7706 2661.6072
153.15628 1479.7706 1289.1307
681.84528 1545.7706 2511.1716
-539.96112 1545.7706 2477.1001
713.29694 1499.4008 2591.8523
-531.23865 1494.0645 1659.7684
182.80678 1544.7706 2434.3274
-318.67807 1544.7706 2327.3726
887.19183 1407.8855 2605.6558
941.03522 1471.7706 2185.1631
-283.24509 1464.3474 2848.2844
286.68024 1544.7706 1857.2535
352.02728 1561.5341 1628.8472
604.97852 1545.7706 2238.6409
895.26813 1464.1542 2605.7156
-752.80817 1469.2906 2481.7664
314.21069 1545.7706 2647.3982
-470.53381 1544.7706 2020.4423
-831.09766 1470.535 2041.4982
771.05762 1544.7706 2407.3877
-727.90039 1479.7706 2867.7981
-651.552 1469.0146 3044.9326
-346.40448 1544.7706 2821.1804
589.19775 1581.2516 2462.7874
-214.65199 1401.0538 3055
-467.87305 1580.1241 1848.556
317.16492 1544.7706 1844.4543
-203.24698 1545.7706 2954.1973
718.02606 1471.4391 2977.1711
-213.65845 1569.8555 2224.1572
596.59778 1545.7706 2222.7661
774.77094 1504.4775 1572.5791
846.69958 1448.7529 2135.2632
959.19183 1431.1992 1672.7476
340.42715 1581.2697 2595.2825
-788.86206 1479.7706 2029.3522
473.25742 1545.7706 2244.2178
346.50235 1545.7706 1381.745
-237.65433 1544.7706 1617.5648
-57.317276 1545.7706 1592.0892
-18.180634 1412.4166 1339
-766.40582 1471.2927 2285.22
-86.942734 1545.7706 1577.952
480.37381 1434.5946 2975
304.71164 1544.7706 2919.0671
116.86982 1428.3414 1263
-166.54651 1544.7706 2706.8657
-207.58186 1573.0205 1842.8784
-824.80817 1462.5641 2902.9824
-593.82458 1544.7706 2087.8389
592.55829 1545.7706 2706.0625
101.14426 1540.7147 2937.0784
-808.22351 1479.7706 1548.079
111.37407 1544.7706 1777.8633
489.55081 1544.7706 2255.8352
-572.98041 1450.7601 2983
434.21844 1516.1681 1393.0389
355.19592 1576.4551 1489.8361
-127.88883 1545.7706 1469.745
-202.33583 1474.8348 1382.8199
-426.5452 1504.7706 3006.3303
198.41833 1545.7706 2137.1943
663.57123 1544.7706 2599.5513
-528.32245 1401.5818 2718.3513
372.44006 1552.0223 1844.5337
198.64156 1479.2777 1267.8884
599.3335 1544.7706 1559.0793
-177.2813 1567.3083 1852.0439
838.3042 1479.7706 1274.3308
-797.79504 1479.0165 1255
11.223028 1545.7706 2267.5476
246.59998 1544.7706 1748.4846
-534.52924 1568.3917 2426.2976
-328.8082 1464.2131 1467.5474
350.241 1585.3226 1811.1329
-124.01006 1453.3722 1335
-436.17273 1547.0651 2428.1807
-762.12952 1470.3901 1348.7
-401.9964 1545.7706 1970.7782
-530.87665 1544.7706 2718.3608
955.08051 1479.1547 2718.1309
627.79761 1544.7706 2218.6438
