# .PCD v0.7 - Point Cloud Data file format
VERSION 0.7
FIELDS x y z
SIZE 4 4 4
TYPE F F F
COUNT 1 1 1
WIDTH 1642
HEIGHT 1
VIEWPOINT 0 0 0 1 0 0 0
POINTS 1642
DATA ascii
626.4306 1441.9929 3055
887.19183 1448.4155 2324.4612
-375.38977 1401.4807 2975
-752.80817 1415.1581 2270.8076
-578.35059 1514.7706 2628.6069
958.23773 1504.7706 2724.6062
887.19183 1424.2744 1511.3678
959.19183 1442.3267 2226.9675
794.24719 1484.3687 2717.9446
-832.80817 1457.0782 2510.6191
-710.42328 1454.829 2212.7656
967.19183 1443.3915 1446.8558
887.19183 1404.9519 2336.0754
887.19183 1441.9436 2810.6541
622.72089 1418.1829 2697.9622
413.32135 1454.6849 1255
-760.80817 1403.3719 2485.6321
-760.80817 1449.4192 2798.3298
355.27289 1503.7397 2920.4226
825.67285 1504.7706 2745.1907
-736.37799 1504.7706 2919.2046
284.91046 1437.3586 2971
967.19183 1438.3232 2254.3457
-760.80817 1416.287 1462.0916
385.52005 1443.1434 2867.0181
-526.97656 1414.7463 1255
-832.80817 1446.9077 1589.9175
-821.61536 1504.7706 2962.55
548.35229 1429.8937 1541.2617
-247.75409 1492.4498 1441.556
822.70068 1414.4972 3055
883.19183 1403.0757 1976.9215
-824.80817 1402.4954 1990.7214
-626.54895 1449.6932 1263
-544.43134 1426.9858 1609.0088
623.67731 1504.7706 1409.9879
887.19183 1434.3715 1556.4592
698.08612 1506.3685 2608.1887
-620.96899 1429.1276 1788.1022
-752.80817 1405.2233 2705.3721
-688.59436 1459.8855 1759
-509.80447 1453.5981 1575.2375
306.51526 1448.7369 1335
692.43567 1449.0958 1688.8737
-832.80817 1448.8751 2437.384
-350.19269 1455.4802 1451.5507
-769.00659 1504.7706 2633.3191
-807.11481 1504.7706 1654.2443
-444.56808 1453.5739 1566.5164
-314.54395 1436.1011 1327
861.01416 1479.7706 3051.7607
275.91245 1422.483 3055
132.17363 1511.2858 1337.8054
866.27942 1504.7706 2859.0874
887.19183 1451.8816 1896.1881
-780.30768 1499.6825 2201.3613
-664.38788 1514.7706 2442.4951
316.34537 1412.3279 3055
879.89258 1417.8575 2955
-500.00278 1512.098 2783.8276
-760.80817 1415.5032 2756.4927
-752.80817 1432.9432 2769.2695
441.0585 1412.6071 1339
467.1918 1434.5006 1475.0835
550.25549 1453.1532 1255
405.11176 1451.7562 1455.4457
-824.80817 1438.2006 2627.6204
-374.56052 1403.9374 3047
-591.73364 1492.2305 1670.4182
509.42014 1513.2599 1512.7626
270.89603 1504.0186 2947.1494
-530.88617 1504.7706 1406.4277
230.38477 1437.8513 2971
732.24152 1504.7706 2864.9302
-465.4722 1493.8401 2724.4741
-256.71399 1440.4557 2860.9934
-632.05463 1425.8768 3047
439.13232 1415.4242 3055
641.38092 1514.7706 2694.1287
770.37958 1496.8506 1255
535.02551 1404.283 1484.2792
-203.74486 1429.1896 2886.1877
922.60748 1504.7706 1463.6173
-568.41888 1423.2632 2669.7205
780.7937 1442.7871 1847.6533
965.72723 1405.0176 1347.9783
959.19183 1418.3015 1732.4636
-760.80817 1442.1265 1687.5383
268.61356 1429.5187 2905.2888
-178.1011 1450.1058 1339
-257.82016 1426.2206 1449.5148
684.80444 1415.6571 2690.9866
878.44855 1501.5048 2036.0695
887.19183 1411.2697 2782.4817
887.19183 1443.3503 2706.4407
774.72546 1419.1366 2555
813.23657 1479.7706 3007.9526
463.1918 1441.5977 1382.7032
-818.50653 1433.6438 1348.7
817.46246 1440.7977 2367.4084
861.51953 1504.7706 1589.2201
-130.80737 1427.7416 1339
-726.54175 1404.3301 1327
366.42221 1513.6156 1364.2747
883.19183 1434.0326 1976.3307
832.6546 1491.5648 1459.1318
-332.8082 1427.3971 1458.5194
883.19183 1424.0837 2501.0876
-126.95997 1451.1919 1327
743.2887 1424.2185 1255
835.79706 1401.8988 2268.2202
722.87054 1512.3535 1619.1765
909.82983 1514.3558 2233.2024
436.50311 1450.5991 2838.425
594.32153 1448.7198 3047
846.47461 1430.4181 2126.2402
425.92004 1438.7405 2843.9534
-832.80817 1494.1033 2793.0291
467.1918 1412.2913 1445.1111
-760.80817 1404.5806 1577.2145
887.19183 1402.4161 1579.8367
-777.35248 1504.7706 2973.5134
-732.80817 1447.6211 1317.2982
967.19183 1431.975 2130.7891
24.378204 1413.5265 2971
-716.66022 1431.172 1335
-528.6897 1449.8561 2653.3577
-328.8082 1409.4946 2922.4446
796.24103 1501.9808 1779.975
-593.63647 1454.7805 1740.9437
953.20221 1435.0164 1348.7
738.67133 1504.7706 2817.3408
-328.8082 1423.9897 2864.2698
967.19183 1411.4578 2401.8879
938.55444 1457.2706 1250.4897
-821.00378 1405.0645 2955.1582
-44.703472 1444.1421 2923.7739
665.28845 1447.1472 2983
-456.0762 1490.9561 2733.1921
-761.37378 1421.2902 2955
959.19183 1434.2104 1428.2457
-411.72083 1501.3643 2855.7593
-754.28619 1416.7338 1348.7
412.9003 1423.7683 2983
-258.41205 1511.0288 1449.7867
687.15137 1504.7706 2998.1614
657.42432 1440.3204 2723.8989
-598.84106 1491.9656 2778.967
959.19183 1415.6528 2905.9075
-760.80817 1415.1201 1521.4774
-735.40997 1502.6431 1882.0228
-251.79228 1444.0951 3047
641.81268 1495.8477 1255
895.19183 1403.0779 1554.7648
956.77673 1449.5913 1255.4346
915.46893 1507.3683 2164.8518
876.52466 1514.7706 2296.8896
-614.1167 1514.7706 2598.1812
-548.45337 1504.7706 2956.645
337.34302 1490.8232 2927.0334
766.11084 1444.2539 2500.9131
453.75739 1503.3932 2910.6116
521.1073 1456.8191 1520.7307
-606.73334 1424.2252 1688.2438
940.29022 1443.6821 2955
959.19183 1413.4939 1926.0059
822.24878 1418.4441 1972.5723
-821.1908 1463.7266 1348.5045
68.988953 1409.4531 1375.2424
895.19183 1439.6499 1977.9863
955.19183 1402.057 3001.4922
245.90338 1506.0264 1395.8663
84.675072 1400.0054 2931.5569
883.19183 1424.3689 2248.7449
754.90729 1514.7706 2533.0828
-585.90314 1409.4143 1734.4333
904.94061 1404.7842 1259.0695
-585.32965 1420.4281 2581.9177
92.323601 1418.2891 1335
895.19183 1424.2258 2469.1987
167.04587 1463.407 1255
699.42517 1406.0443 1635.9629
-484.4252 1514.7706 2746.2427
-748.80817 1411.9685 2134.146
-760.80817 1412.1333 1398.8846
959.19183 1448.8746 1357.7798
745.51007 1439.1342 2615.5186
-760.80817 1455.9458 1457.5654
655.88477 1445.9167 1647.9294
-304.1069 1508.6096 1392.7174
585.24567 1501.2717 2788.0093
74.761482 1436.5557 1327
-479.50964 1446.4282 2766.0105
-422.28354 1406.6035 1255
368.70566 1503.1343 1394.7554
-483.03311 1463.2601 1547.0289
861.17682 1504.7706 1420.3125
-373.21677 1456.3618 1255
-805.41693 1504.7706 2968.8254
576.4231 1455.8536 1512.5695
777.29016 1418.3032 1840.0281
-752.80817 1447.7092 1944.5939
594.91736 1420.0851 1263
959.19183 1446.8904 2556.6125
-752.80817 1415.7612 1858.8461
844.00568 1442.2043 2086.5425
-776.30133 1499.1891 2249.3623
887.19183 1426.6498 2261.4751
558.80829 1517.2649 2841.5708
-700.75122 1514.7706 2302.7825
734.09998 1504.7706 2886.6597
-238.52055 1458.3181 1339
35.993202 1418.1595 1375.829
216.16069 1453.8417 1263
-40.955074 1516.4967 2924.2515
-56.14481 1448.1422 2975
818.58521 1434.9828 2363.418
887.19183 1435.5629 2174.7847
887.19183 1452.197 2031.8226
762.83307 1423.2151 2588.7178
959.19183 1427.4897 2343.8005
-38.084377 1460.8949 1327
-249.71454 1509.8 1369.0048
-824.80817 1456.8546 2423.1213
562.54669 1421.7288 2753.3298
109.89989 1435.0309 1339
-501.79413 1424.3206 2688.3999
349.22208 1514.7706 2936.6079
-164.45575 1505.0833 1338.5204
811.91534 1488.3951 2375.8718
-257.29556 1507.5081 2907.8877
835.75201 1479.7706 3036.6567
-832.80817 1427.0323 2503.9214
-766.22699 1504.7706 2705.7234
86.492203 1503.1682 2934.7576
-512.38855 1485.037 2865.4197
390.1601 1446.1979 2971
-824.80817 1454.1145 1813.4294
-824.80817 1406.7814 1545.2017
873.49182 1431.5826 1267.6005
883.19183 1435.428 2520.2498
836.42908 1502.0341 2857.2051
463.1918 1425.0327 2877.5635
-760.80817 1435.2853 2273.052
-748.80817 1450.7073 2000.0851
-49.83366 1418.2546 2971
-85.914268 1427.8538 2916.6868
-760.80817 1411.8073 1501.2635
18.438364 1504.4618 2933.2949
693.89203 1504.7706 1391.4911
-752.80817 1431.5209 2250.9756
491.65915 1514.7706 2834.3364
959.19183 1440.0332 2448.0894
887.19183 1422.2567 2127.5173
-832.80817 1417.2699 1386.557
967.19183 1425.5673 1703.6418
-591.01978 1451.0804 2573.1077
316.89798 1450.4353 2975
-586.08295 1438.6077 2983
895.19183 1407.8844 1716.1432
-214.65726 1407.6086 1335
769.92816 1445.5273 2573.6143
-737.91101 1514.7706 2255.7666
710.22748 1504.7706 1336.7533
843.49536 1456.9575 2182.4829
847.11102 1428.0885 2158.2395
335.69498 1514.7706 2928.7405
-344.86243 1453.4006 1335
825.7326 1501.7992 2322.4148
844.63745 1494.2333 1894.6829
834.53424 1448.5281 2016.3705
-457.9422 1498.5535 1578.5392
-754.54364 1447.7067 1348.7
945.63739 1436.8792 2955
959.19183 1425.7527 1877.1237
-150.66574 1405.2584 1335
-291.94757 1513.1633 2891.9802
492.20074 1401.417 2808.9775
-337.03482 1413.3926 1335
880.92297 1504.7706 2954.1614
887.19183 1445.993 1427.8524
101.41717 1431.4624 2983
-714.63635 1504.7706 2905.6084
-732.03174 1504.7706 1661.6014
-738.32275 1505.6752 2422.2346
373.15652 1515.4862 2942.5571
-687.70117 1405.885 3047
-832.80817 1445.0756 1463.7649
323.66226 1450.5304 1335
806.12329 1423.6641 1335
-832.80817 1422.2461 2808.5081
849.66943 1418.9102 2983
859.77478 1504.7706 2946.8267
-726.13641 1489.7668 2353.8374
684.22028 1508.5345 1573.3949
748.34143 1436.4304 2607.8655
653.52081 1444.8677 1327
-675.10748 1456.2251 2384.344
-824.80817 1422.3177 2095.1335
890.29388 1508.6327 2358.2476
-557.00415 1413.9821 2983
887.19183 1444.5267 1366.1418
-760.80817 1434.8237 2899.9744
-708.98419 1409.5247 2122.4827
679.42346 1504.7706 1319.4014
733.90137 1488.6313 2553.582
-752.80817 1434.2446 1697.3403
793.3374 1407.3461 2439.1392
729.09338 1504.7706 1454.6229
234.31786 1502.7871 2913.6079
401.82077 1494.1892 2901.2847
-748.80817 1438.6287 2263.6162
-832.80817 1418.9445 2476.4307
967.19183 1408.671 2126.4802
-299.54715 1406.5619 1470.2312
-718.47198 1487.4819 2389.2876
324.8501 1483.7733 2891.0208
-276.20615 1444.6194 2851.9612
894.50983 1446.3556 1250.6277
-824.80817 1426.8914 1816.1001
967.19183 1450.2191 2794.8042
-578.87134 1504.7706 1491.5634
833.02661 1503.2391 2521.4336
-269.79614 1425.1615 2858.1807
567.59174 1407.2223 3055
-590.35333 1428.9741 1263
737.08673 1415.0402 2548.1709
-618.81281 1504.7706 2979.5371
-767.35797 1409.4012 1348.7
873.49182 1442.0745 2971.7937
501.30237 1427.3026 1263
787.22272 1492.1139 2454.7192
887.19183 1449.7606 2015.3663
-752.80817 1441.8116 1538.5157
622.56946 1448.2665 2698.1135
467.1918 1448.8292 1435.1362
665.85614 1424.8647 1655.0673
967.19183 1449.6641 1482.6923
-38.05439 1500.1138 2924.6208
644.47015 1514.7706 2764.2529
33.012955 1436.0966 1339
649.63983 1504.7706 1438.5098
105.12128 1408.0551 2975
587.43524 1406.3164 2731.7917
887.19183 1460.4481 1386.6233
840.01373 1502.8621 1443.7676
-685.13171 1418.9984 1960.7928
139.16188 1498.7383 2931.45
-683.61414 1433.6642 2365.5059
-372.05112 1406.4927 1327
639.87769 1497.901 3055
960.82623 1419.5321 2956.9031
647.5556 1404.3076 1578.6353
-676.02258 1427.8672 1918.7441
-538.22949 1514.1282 2744.9548
427.49374 1460.0308 1339
890.94574 1410.593 1261.3
-638.18835 1420.8667 2487.613
809.87195 1504.7706 2968.8835
-520.38135 1503.3506 1452.5731
841.59174 1512.0768 2063.5793
958.70044 1504.7706 1305.5602
-752.53796 1496.6537 2371.1921
887.19183 1416.7489 2930.1499
30.022795 1410.1476 2931.0581
418.86847 1428.8523 2975
777.12927 1444.821 2477.5129
-562.32965 1401.3516 1694.8234
967.19183 1496.056 2980.4841
-748.80817 1440.425 2485.8477
744.01086 1514.7706 2557.9031
887.19183 1440.7328 1863.031
-824.80817 1460.3323 1430.3357
-486.75342 1420.3562 1610.454
-295.64532 1429.2412 1464.7081
-282.53336 1419.2357 3055
777.70685 1504.7706 1479.099
-389.09857 1418.8079 2787.5767
-627.15338 1504.7706 2999.0691
895.19183 1439.4216 1358.1187
-760.80817 1423.4915 2934.4011
769.10895 1494.4266 2578.8071
696.49884 1427.4501 2975
-549.34857 1485.92 2692.2297
-752.80817 1415.6271 2381.8027
171.07021 1401.2738 1327
-624.25067 1414.516 2508.9629
-496.68393 1429.1669 1327
-299.48862 1431.3589 3055
-505.59711 1451.09 1630.326
-625.04492 1429.9321 2590.3569
967.19183 1483.3126 2715.7737
-54.027702 1513.0211 2963.9456
959.19183 1448.1711 2125.1047
-608.51447 1414.1086 2615.7549
738.69464 1430.1909 2555
480.06311 1427.3247 2863.3699
-426.55328 1461.7323 1551.4001
887.19183 1433.7745 1913.4785
220.44812 1433.407 1335
-362.14111 1426.3075 1507.6825
-429.05185 1445.1589 2805.03
-384.10419 1513.369 2871.332
883.19183 1414.7686 2316.2883
878.16229 1412.0115 1261.6241
-493.54449 1406.2894 1617.245
-517.34106 1496.4823 2671.0845
181.00919 1413.6012 1255
788.57202 1514.7706 1783.2947
808.74811 1495.9088 2926.9761
959.19183 1433.1302 2467.6411
557.84265 1496.588 3055
366.0412 1440.2683 1434.7709
-748.80817 1443.2526 2003.5449
202.01958 1440.5232 3055
884.94708 1439.9774 2555
-351.5994 1514.7706 2819.9851
811.80969 1454.519 2376.241
-824.80817 1439.6515 2940.5449
-752.80817 1416.1664 1915.5078
-476.81271 1504.7706 3017.8086
447.75229 1424.7429 2983
-332.8082 1401.9985 2853.408
189.3978 1449.7576 3055
55.784355 1436.345 1263
-736.97528 1504.7706 3020.6106
959.19183 1409.8353 1483.98
-451.54016 1504.7706 2955.0403
887.19183 1436.9437 2162.8423
-599.51392 1441.9846 2628.5347
855.52924 1504.7706 1648.2031
887.19183 1421.3553 2228.5994
-228.24799 1412.6296 2876.6665
-752.80817 1455.4886 1769.6359
687.39929 1503.1323 1575.4557
746.19781 1402.5535 1759
967.19183 1451.8871 2640.0415
-832.80817 1414.1162 2183.1292
-583.44885 1412.4596 2983
237.43053 1413.2491 1393.8835
463.1918 1428.2441 1380.8599
416.45999 1507.2738 1381.897
599.77899 1444.2972 2975
-613.93512 1504.7706 2791.8643
-226.87881 1452.4764 1339
-824.80817 1436.4211 1575.9152
959.19183 1441.0803 1682.4792
69.305565 1423.3948 1378.0536
211.45859 1404.3179 1263
474.50583 1439.4037 2866.5872
763.37958 1514.7706 2591.4863
-328.8082 1454.2996 1403.0061
-828.40149 1504.7706 1409.8706
682.88477 1445.8868 2628.8901
-425.58273 1491.2872 2759.4143
-760.80817 1426.6025 1765.3273
-559.84808 1504.7706 2838.8269
597.84717 1462.3678 1327
-642.08179 1430.631 1831.0159
840.07111 1487.4929 2051.4451
-69.656029 1429.1157 1255
895.19183 1435.0726 2296.6777
454.01456 1448.7445 2983
887.19183 1438.2615 2524.0271
-576.9942 1428.7483 2594.7795
-214.50627 1421.3823 1335
-760.80817 1448.085 2267.7419
-686.26514 1407.3617 2344.3228
967.19183 1502.2638 1594.8627
-748.80817 1448.8195 2213.0208
92.562088 1414.7152 1255
-510.43301 1451.0531 1335
847.10419 1455.0663 2151.4858
887.19183 1415.5304 2618.3406
-410.12903 1415.6979 2771.6467
-832.80817 1445.262 2090.2842
967.19183 1407.0568 2388.7827
-642.27899 1500.2091 1748.1626
755.19281 1449.8682 2522.2095
895.19183 1427.3342 2393.3992
844.16565 1440.1432 2153.9685
-335.75824 1450.2943 1443.1813
452.02527 1408.3654 1335
959.19183 1430.859 1373.1113
645.41107 1410.9351 1631.7614
-170.41434 1422.2943 2894.6567
636.15399 1448.2661 1263
-832.80817 1406.5573 1328.986
883.19183 1407.7499 1915.3448
834.55957 1451.2379 2293.4861
711.45105 1504.7706 1403.5084
128.01103 1421.725 1327
-229.3308 1460.6224 1255
804.31311 1504.7706 2761.5557
887.19183 1442.3546 2801.9316
967.19183 1437.9684 1868.3093
-599.74585 1504.7706 3049.9583
657.65277 1404.3323 2720.7593
748.67902 1504.7706 1267.1489
959.19183 1401.1504 2406.084
-13.005722 1428.9323 1327
240.44348 1511.804 2954.2263
599.82495 1439.0659 2983
-730.44904 1514.7706 2275.5352
895.19183 1414.9645 1848.4884
-574.63702 1504.7706 1256.0525
895.19183 1435.5992 2414.5872
-709.53644 1455.8407 2165.7229
352.00507 1501.8401 2954.6514
-743.62946 1504.7706 1375.3813
536.37244 1504.4822 1532.1874
887.19183 1446.5413 2833.3987
-748.80817 1442.2167 1796.8412
-711.94226 1435.4171 2189.7236
-242.80679 1516.3271 2935.5508
-752.80817 1410.9445 1727.1781
-426.21228 1462.2159 1551.114
-581.03143 1513.4438 2699.4214
967.19183 1407.1633 2591.0371
701.7417 1410.1304 1327
708.41168 1502.6855 3055
722.54681 1504.7706 1403.6792
747.67493 1500.7878 2902.2717
274.82681 1513.6038 2946.0347
-449.12457 1514.7706 2755.5183
-282.53952 1402.745 1335
445.00876 1501.2477 1476.0668
-748.80817 1409.7194 2132.7568
234.38457 1514.7706 2975.3052
142.02907 1452.4865 1335
671.90326 1429.4376 1263
-674.79803 1447.5787 2555
-643.35742 1421.9928 1841.0094
-263.61118 1413.1516 1335
806.23621 1500.0649 2570.3762
748.82629 1400.9072 1755
-620.54779 1419.8969 2597.4587
159.93542 1494.566 1342.4448
-398.55435 1427.6108 1482.809
967.19183 1401.1865 2702.4568
-755.56128 1514.7706 2235.1746
824.22107 1502.0477 1770.7435
-445.21466 1402.2499 1515.0474
560.46613 1492.7511 2755.0264
-668.48364 1504.7706 2824.3965
132.69814 1423.5194 3055
375.72873 1448.5106 1438.8545
94.099831 1514.7706 2975.4673
330.94781 1507.4078 2961.0723
-748.80817 1417.2759 2437.4272
505.33649 1432.369 1513.49
-752.80817 1451.6227 2256.7004
-766.09149 1504.7706 1542.3867
967.19183 1405.7242 1642.3809
145.13869 1444.8478 2975
31.564896 1416.1418 1335
-122.18842 1509.2128 2908.4436
279.07376 1417.0759 2971
422.18164 1458.4678 1327
887.19183 1403.2141 2080.2932
887.19183 1420.5441 2300.3472
-837.90308 1448.1409 1337.3269
-760.80817 1440.1354 2178.5549
-824.80817 1402.3466 2906.3025
831.13654 1449.8036 2295.5081
-389.65311 1506.7017 1440.2561
898.0025 1514.7706 2124.9622
-752.80817 1431.798 1935.2679
-41.457943 1404.1973 2983
883.19183 1442.6807 2461.9016
-275.48215 1430.5341 1263
-191.86827 1502.9739 1377.1901
-780.03986 1504.7706 2935.2781
779.17419 1493.234 2561.53
-263.2941 1445.1765 2983
638.03345 1451.5417 1566.6171
-755.51733 1400.1543 1348.7
426.68973 1460.8119 1466.4487
288.14365 1409.9678 3055
-748.80817 1402.8446 2399.8237
-329.85846 1433.5546 1335
-410.20395 1445.7355 1491.0135
-55.459229 1440.9385 1255
463.1918 1407.7048 1442.597
-520.15137 1504.7706 1325.3716
-612.05475 1503.5919 1255
938.94312 1504.7706 2753.1689
-760.80817 1414.7849 2346.2227
518.09406 1416.3856 1263
683.95007 1504.7706 2993.2947
608.13324 1401.6899 2716.7937
908.90173 1418.0709 1247
73.277893 1503.7684 3002.8865
-270.65027 1403.788 2975
77.689064 1436.2394 1255
-760.80817 1444.3549 1768.6652
-824.80817 1426.7606 1803.5105
-654.77808 1494.7706 2599.5586
-690.31323 1504.7706 2789.0522
248.4501 1416.0433 2983
-127.07386 1405.1971 1327
128.43898 1403.8274 3055
-835.45624 1431.2119 1267.5
-193.38214 1428.6404 1423.1938
392.74078 1508.6965 1446.3105
-519.13153 1406.0619 2975
-131.45062 1503.7247 2906.0842
-9.538084 1514.7706 2986.5337
-584.60236 1420.3828 1327
836.11414 1506.2281 1798.7546
37.84507 1444.7537 2971
-752.80817 1448.1211 2381.1982
-752.80817 1451.8406 2128.3757
652.45807 1427.8074 2726.2156
759.85291 1449.1893 1335
-13.254629 1514.7706 2970.5815
881.91003 1416.127 1348.7
467.1918 1409.2125 1413.9701
-752.80817 1402.0317 2950.0208
753.93732 1413.9788 1785.3417
959.19183 1422.5032 2004.2833
-332.8082 1405.8618 2883.2766
884.88184 1513.2999 2167.9553
258.98526 1511.4127 1329.7532
426.19083 1514.7706 2864.7275
745.32965 1504.7706 2862.1025
442.93057 1488.1969 2883.7483
-516.55389 1504.7706 1444.7252
822.50391 1432.0055 1973.6718
-824.80817 1449.1345 1891.78
-681.45844 1428.396 3047
-760.80817 1431.0989 2678.9507
-399.44156 1413.285 1255
840.9043 1504.7706 3007.6296
967.19183 1448.5642 2465.1453
629.09979 1452.2365 1614.3435
959.19183 1434.4214 2902.3701
895.19183 1441.2794 2720.8267
15.3592 1420.5447 1263
-281.66388 1451.5582 2971
858.84363 1441.1371 1255
673.52203 1493.7748 1471.3302
-824.80817 1416.6208 2837.7175
660.68872 1504.7706 1287.8594
-683.8689 1456.465 1945.3993
-760.80817 1435.127 1466.8792
-748.80817 1430.668 1883.6039
-356.95538 1444.0651 3055
527.63354 1503.2056 1529.4316
960.89178 1441.5703 1303.8674
-600.33136 1503.3688 1418.9172
-736.33374 1512.458 2002.5071
-360.9975 1514.7706 2844.1379
-751.23883 1514.7706 2262.6284
252.84778 1487.4435 2953.6011
967.19183 1417.5293 1668.9755
967.19183 1442.2819 2306.7695
895.19183 1429.8827 1851.8496
381.21323 1414.7792 1339
515.77893 1406.6494 3047
-115.57703 1437.3849 3047
699.02576 1507.4344 1698.0399
895.19183 1411.1233 2235.3953
397.12341 1415.068 1263
-760.29437 1450.8121 1355
303.17023 1459.2781 1339
887.19183 1406.688 2054.4177
-363.89862 1511.74 1427.0851
-824.80817 1424.7006 1823.3069
-748.80817 1421.9436 2334.8076
930.72131 1504.7706 2665.804
-728.54114 1425.2722 2555
887.19183 1433.5317 2544.2031
924.84906 1491.4156 3055
-404.84171 1504.7706 1319.0942
-752.80817 1421.6525 1976.4652
124.96872 1506.6748 3000.387
-43.763641 1432.2485 3055
777.34772 1514.7706 1708.0045
-53.110729 1413.9713 3047
879.3924 1504.7706 2658.895
959.19183 1405.5591 2074.1843
578.29846 1408.4885 1327
-832.80817 1401.7573 2018.4246
920.61133 1504.7706 1530.8793
153.40166 1451.6576 1263
-752.80817 1423.6028 2185.2637
-680.23779 1504.7706 1606.2655
156.82268 1403.0146 2983
-336.55856 1505.8857 2900.0952
861.68542 1514.7706 2137.2305
-291.14389 1445.7488 2847.7432
419.92123 1514.7706 2884.2742
-459.41568 1456.6292 1526.6564
764.23145 1429.6115 2586.5095
-752.80817 1428.2312 2407.4377
887.19183 1411.4686 1573.2133
630.99896 1508.6118 1562.6804
42.57407 1489.6447 2931.3762
960.89178 1455.0635 1309.2576
-488.81766 1511.2015 2757.5044
208.7664 1491.2458 2962.5281
48.279102 1507.0936 2934.7576
967.19183 1437.5022 2663.6116
441.7984 1441.3915 1335
-251.61166 1492.37 2866.8179
-638.80255 1407.8007 1738.0253
959.19183 1415.8876 2891.5837
-558.19037 1504.6608 1582.4069
-752.80817 1404.6815 1883.9218
167.60626 1459.0815 1263
959.19183 1428.6287 1401.6244
-328.8082 1400.3181 2832.864
-739.35852 1504.7706 1292.7694
167.04465 1421.9141 1263
883.19183 1404.9752 2136.9807
-768.9342 1514.8551 2233.041
959.19183 1438.6434 1400.0175
-824.80817 1411.9469 2081.5608
763.88794 1400.1456 1722.948
915.26569 1443.6382 1348.7
10.719484 1489.3583 2932.9097
-710.05542 1441.3407 2983
936.20618 1504.7706 1355.6866
384.69257 1508.5695 1369.9467
-92.928062 1401.2062 1327
887.19183 1447.3972 1893.343
959.19183 1428.6282 1823.6005
-832.80817 1447.3015 2781.0872
887.19183 1444.5782 2785.0408
581.0448 1447.7621 1263
895.19183 1402.5936 2662.2666
72.446793 1422.3245 1378.1332
-235.22441 1506.5371 1439.3727
-419.95276 1419.8737 2760.0247
738.77209 1415.7139 1684.9143
744.28632 1504.7706 3005.4258
442.71219 1424.5601 3047
874.18286 1403.0869 1759
883.19183 1413.6656 1772.7579
-248.95947 1419.6464 1335
-366.75558 1408.2263 1507.1167
710.52954 1504.7706 1280.2428
-335.10556 1416.9276 1335
895.19183 1414.6803 2155.0056
488.45444 1504.9031 1502.3638
141.6804 1427.5084 2971
883.19183 1420.9989 2440.4751
-454.24643 1452.3654 2975
882.6626 1416.3588 1355
-54.74688 1453.9069 1327
-382.3356 1420.1512 1521.4171
887.19183 1448.3755 2161.3997
804.05402 1509.8173 1738.2208
-760.80817 1442.5138 2339.5269
-752.80817 1441.0483 1982.2935
558.89465 1438.3453 2811.1099
959.19183 1421.6019 2659.3608
467.1918 1448.8311 1385.4194
-810.27374 1504.7706 1282.9656
780.41437 1491.1162 1754.6879
651.95416 1428.5211 1583.2552
833.7135 1400.6256 2028.87
467.1918 1415.3241 2850.45
-356.8465 1486.6433 2854.4043
-832.80817 1403.3258 1800.783
805.62604 1504.7706 1554.119
636.51648 1437.0464 2683.5083
686.00946 1408.7983 2692.6506
-233.88 1447.9977 2975
-832.80817 1418.3931 1892.376
-691.73846 1439.3169 2320.7363
820.34387 1513.877 2473.8704
-647.26917 1500.6915 1255
297.29675 1428.8008 3055
-760.80817 1403.5603 1835.4446
-696.99011 1445.7837 2294.1843
-589.28314 1497.2098 2691.4092
959.19183 1425.4602 1556.6268
-771.13855 1504.7706 1486.5031
895.19183 1435.1095 2361.0332
809.67603 1504.7706 1257.9402
-732.9187 1444.767 3042.9556
-316.52362 1514.7706 2877.3989
-322.04614 1437.7946 1255
887.19183 1446.957 2472.1355
-489.72562 1499.1244 2888.0825
243.59901 1483.2122 2914.7205
895.19183 1444.6362 2772.9182
467.1918 1412.0544 2963.3645
-711.74969 1404.2297 1755
-760.80817 1402.6653 1690.1953
-565.68011 1501.4989 1497.8719
-760.80817 1441.9407 1454.767
127.79662 1451.8499 2983
-826.50818 1463.1326 1309.7599
442.59021 1412.8444 1471.5486
-105.48369 1409.771 2915.6238
951.02289 1504.7706 2799.2441
789.57599 1504.7706 3037.5056
887.19183 1400.7446 2427.9443
691.88629 1504.7706 1345.7665
967.19183 1419.5906 1777.4872
-638.27222 1414.9475 1822.5729
463.1918 1456.719 1439.7571
840.81921 1452.9757 2084.4543
-315.39133 1514.7706 2839.3201
-561.40778 1412.5767 2611.3137
771.68713 1511.2797 2623.718
463.1918 1424.9869 2861.3811
895.19183 1419.1356 1796.4353
-340.52313 1491.392 2864.0273
-824.80817 1440.1721 2611.4783
-227.89349 1439.0275 1327
-706.81311 1504.3737 1884.4412
967.19183 1426.2285 2362.0088
130.74335 1498.1544 1377.7076
857.05493 1501.1625 1942.8755
-402.8082 1484.1951 3017.8748
-832.80817 1409.0035 2309.4607
-824.80817 1405.283 1950.5774
362.86832 1507.9371 2948.7654
97.84169 1416.6875 2975
-686.46326 1419.5116 1327
884.13843 1492.8979 2115.8831
-659.91302 1438.2156 1327
-634.10229 1504.7706 2973.1899
-451.65018 1444.3724 2983
250.29066 1447.8251 2975
916.76587 1504.7706 2882.7849
-709.20514 1426.432 2229.0208
209.06946 1439.1155 1255
883.19183 1416.4147 2325.7708
915.21466 1503.0427 2117.2791
-74.881889 1439.7502 1391.3359
884.88623 1486.5765 2136.2629
-826.50818 1407.9719 1339.7548
-832.80817 1490.1451 2936.2012
967.19183 1434.6204 2754.9854
887.19183 1442.5804 2624.7659
-384.76849 1514.3346 2836.7229
107.17118 1502.8053 1379.0449
766.15186 1514.3486 2500.833
663.7077 1504.7706 1321.1458
-332.8082 1463.0505 1439.2258
-172.82727 1514.7706 2949.0066
583.05322 1438.7004 1517.7437
352.14468 1417.1565 1432.397
-805.21997 1450.5844 1261.3
-173.03198 1500.3048 1340.9175
897.66809 1504.7706 2699.6509
-32.169388 1426.3729 1255
-748.80817 1406.9662 2505.6274
-752.80817 1442.3086 1885.3076
-418.11084 1452.5305 1263
-675.31866 1502.7173 1374.9117
-538.87622 1416.9175 2975
355.32727 1433.4182 2971
-752.80817 1432.1771 1784.7015
774.8349 1451.8961 1327
385.10208 1496.5464 2910.7776
-479.04471 1404.0809 2711.7236
-832.80817 1448.3391 1997.5894
-462.65335 1504.1592 2915.1548
-571.1474 1504.7706 1299.5646
-436.36566 1411.6655 1559.6337
-464.92151 1427.5042 2724.9851
874.28448 1504.7706 2795.4209
885.95715 1500.7235 1931.1091
959.19183 1401.5532 2256.3806
-746.11554 1508.7046 2257.8938
-661.11401 1506.6965 2425.6763
-690.48633 1506.6908 1970.4062
579.33319 1504.7706 1294.6523
959.19183 1400.9678 1524.302
-832.80817 1490.7261 2986.499
-34.838478 1419.3525 2975
-592.92767 1406.9503 2570.1538
959.19183 1422.0793 1872.2753
647.90015 1450.6869 2731.0029
273.07721 1514.7706 2911.2629
706.45636 1508.8342 2710.1514
895.19183 1461.2141 1380.5581
814.23297 1511.3063 2554.6284
887.19183 1446.4973 2177.3735
-583.82703 1514.7706 2679.4219
861.11029 1514.7706 2219.6641
532.14337 1494.2679 1528.9839
-541.04224 1481.9492 3055
-739.10822 1409.6859 1319.7866
504.09506 1492.4979 1512.6718
-94.611992 1496.6057 2917.8215
462.4144 1491.5198 2871.1033
-776.43176 1498.8151 2238.9646
66.200241 1507.7839 1378.0251
517.61359 1430.3405 1472.303
-832.80817 1440.3434 1280.5776
366.0827 1437.1807 2971
727.32837 1418.4729 2983
793.3064 1513.3871 1878.8381
895.19183 1436.8165 2323.0234
-832.80817 1440.8911 2211.1377
867.19183 1408.558 2980.0217
-832.80817 1406.3378 2691.9958
883.19183 1432.2988 2174.6548
-438.72137 1504.7706 1311.5984
-497.039 1508.0487 2786.5781
895.19183 1404.6541 2268.0706
773.5108 1421.1049 1738.5859
-676.75055 1417.6024 2378.6018
883.19183 1449.4705 1965.2997
895.19183 1405.8226 2338.9492
659.11176 1439.2489 3055
720.13043 1434.3019 2575.8037
-538.74207 1506.9805 2707.4072
325.77344 1422.4941 1339
967.19183 1425.228 2537.9551
694.36035 1428.2369 2618.4492
566.66608 1514.7706 2789.2307
25.992176 1511.5256 3000.0049
256.34274 1501.309 1357.2467
845.75439 1493.3792 2200.1223
-820.10596 1504.7706 2958.6184
539.12921 1436.9763 1327
-659.36029 1514.7706 2533.0669
387.04108 1426.462 1263
595.88086 1504.7706 2994.9856
883.19183 1428.9053 2033.8794
-740.09717 1498.8188 2417.2346
155.28604 1425.0581 2975
852.56671 1496.261 1926.5575
825.62653 1504.7706 1551.229
-317.24307 1429.6663 2833.5305
846.27161 1441.0742 2191.8984
546.38373 1416.2004 2770.2295
-40.988407 1422.4487 1385.7528
-744.1524 1446.2112 1348.4502
895.19183 1413.5947 2460.0288
959.19183 1444.0712 2040.043
-592.68585 1504.7706 2821.7354
592.10809 1409.6367 3055
98.369415 1438.3193 1335
-752.80817 1423.2988 2052.7959
893.18408 1504.7706 1397.0962
967.19183 1426.4414 1823.7257
-331.60434 1514.7706 2844.8171
-551.80511 1410.9644 1327
-332.8082 1418.896 1370.8446
-721.47864 1443.686 3055
-732.80817 1462.9838 1277.2611
-778.35663 1506.172 2227.4329
4.0134439 1409.6741 3047
-526.45087 1494.947 2720.3171
883.50348 1513.4685 2204.7651
656.74176 1426.113 1585.3842
887.19183 1453.0853 1979.6531
-748.80817 1437.6124 2098.3047
271.7038 1508.521 1402.4359
762.64056 1490.6281 1720.978
-585.84039 1504.7706 1453.5941
-635.98602 1492.9939 2576.8164
746.2832 1415.4852 2975
-637.47559 1456.2196 2570.2837
186.23279 1415.4655 3055
895.19183 1422.3383 1501.6538
-129.88573 1417.6428 2906.532
-625.15417 1407.4758 1796.2657
127.65359 1514.7706 2988.6069
734.58887 1491.1484 1751.4506
-832.80817 1426.2982 2513.6907
-569.9339 1407.6515 2604.5996
549.36377 1410.5223 1542.0278
-732.10852 1512.9176 2327.9094
147.58865 1420.8291 1327
512.69244 1426.5162 2840.8135
-599.05457 1496.327 1680.813
-50.918144 1458.4589 1387.0409
940.12836 1504.7706 1668.1254
-824.80817 1410.1033 2707.6836
-656.23236 1509.8229 2596.3887
-501.44312 1504.7706 1275.4979
887.19183 1444.2992 2450.0884
-705.12988 1504.7706 1587.2856
-749.31573 1493.5558 2080.4819
479.93576 1421.4335 1446.5564
511.93655 1429.7181 1263
-760.80817 1410.1483 1890.3611
868.1062 1511.7001 1989.2479
719.72766 1413.3918 2576.415
867.19183 1443.8329 1338.1064
-736.6485 1498.7253 1993.4154
-696.19275 1446.6195 2011.3667
820.52618 1479.7706 3048.8127
-769.31665 1504.7706 2868.0747
559.04309 1504.7706 1324.733
721.59332 1451.5873 2573.5842
886.97137 1499.5599 2142.6184
231.43008 1403.1071 1327
-800.06293 1414.8135 1348.7
-582.10168 1504.7706 2902.8997
-708.48883 1492.3279 1895.6788
-25.185719 1495.4349 1312.0533
97.997261 1415.6169 1255
-752.80817 1421.8419 2590.7668
-339.02084 1436.517 1492.7823
693.3819 1514.7706 1673.8562
-703.06152 1502.5522 2436.1301
852.51923 1453.6121 1255
794.0177 1490.506 2429.3813
808.03113 1494.827 2506.2781
331.21378 1481.6958 2885.6277
887.19183 1443.3831 2589.241
-580.22839 1499.6687 1720.184
-760.80817 1429.1401 1391.3827
316.73706 1499.6703 2890.5759
711.84784 1504.7706 1489.9714
372.6333 1496.9916 1362.9695
-156.91731 1507.3268 1338.0669
-752.80817 1456.473 2419.2644
289.11234 1460.2343 1327
-180.89212 1423.3379 2975
795.81549 1451.0776 2432.8252
830.55005 1514.7706 1809.7404
749.80756 1514.7706 2555.4546
-20.562815 1439.0785 2975
-832.80817 1432.7528 1420.438
-684.12048 1415.557 3055
-332.8082 1400.6309 1479.4675
-496.1438 1452.1133 1559.4708
-657.41492 1504.7706 2971.4631
225.57277 1500.2963 1350.4716
-533.68292 1411.8292 2712.7209
-45.67717 1435.5858 1383.447
463.1918 1433.6506 1471.4465
564.30859 1514.7706 2818.8269
219.47192 1514.7706 2963.4773
-622.86725 1504.7706 1310.6637
-752.80817 1450.7205 1991.9207
-328.8082 1435.9775 2832.1599
-435.18668 1409.8071 2983
-453.89459 1507.8561 2822.917
-832.80817 1426.6096 2662.6702
-221.00438 1403.9866 2879.72
-748.80817 1421.8889 1760.7535
479.51578 1514.3239 2863.5747
679.93134 1496.0736 1672.717
-780.56409 1420.8064 1255
-131.5054 1505.2028 1330.9594
951.13202 1451.0375 1348.7
-752.80817 1442.9905 1920.4148
-760.80817 1430.9617 2493.979
32.459904 1492.3159 1335.8264
967.19183 1409.3433 2451.6123
-518.79327 1496.1379 1450.9851
177.64333 1400.9313 2971
959.19183 1420.0408 1733.9279
-107.02448 1420.126 2971
654.43793 1495.5092 1255
-88.744217 1490.3319 2919.0078
229.76796 1446.6948 1327
-125.84486 1433.5394 2975
91.564606 1425.022 1335
-660.5943 1446.45 1335
233.28114 1406.3855 2916.9553
-775.92212 1501.5155 1685
-351.7543 1404.4833 3055
-227.85158 1415.4943 1335
-569.5827 1458.4648 1709.8191
-752.80817 1424.9087 2858.0718
-229.43433 1448.9318 1327
-750.31189 1509.332 2176.4292
448.67935 1401.4727 3047
100.57862 1505.8102 1306.9602
-560.24695 1488.6099 2817.5613
345.28177 1422.9365 1339
424.72549 1430.8934 1255
-748.26062 1504.7706 1370.0656
-292.92676 1487.5062 2891.6404
-824.80817 1455.5951 2227.0237
310.67859 1407.4089 1255
364.15009 1424.2872 2872.8076
665.12714 1434.99 1263
-704.50995 1424.735 2066.0928
332.95932 1425.4065 1424.969
-670.14343 1426.1847 1910.6018
931.51685 1504.7706 2867.9939
758.00854 1504.7706 1520.2542
-752.80817 1447.446 1625.6404
-800.55219 1449.2455 1348.7
-255.44101 1420.6584 3047
212.20908 1503.1719 2921.2151
541.87317 1509.9712 2820.8982
832.75153 1513.3772 2303.7397
573.26788 1461.6921 1561.7471
696.69666 1501.0649 1494.5049
568.24738 1501.3805 1506.1891
-343.49493 1499.358 1412.1199
649.53125 1450.0278 1640.897
887.19183 1434.1537 1922.6317
146.58698 1405.4913 1339
574.38696 1416.6826 2796.4834
-752.80817 1451.7216 2331.1357
727.11194 1456.296 1263
-785.92505 1435.4601 1355
-510.74484 1497.3496 1442.9366
895.19183 1427.2256 2329.5635
-374.43469 1421.8533 1263
783.4599 1408.6578 1755
-153.53571 1448.6868 2975
967.19183 1407.2269 1361.9272
-680.44867 1410.9451 1263
959.19183 1436.5853 2229.5674
733.31238 1449.3207 2975
341.64624 1510.9393 1425.0925
420.15759 1404.7507 3047
666.89215 1503.4548 1656.3665
-167.91924 1464.3192 1334.9131
887.19183 1444.9679 1825.567
155.36656 1427.131 2926.7949
-517.4751 1431.3932 2666.5269
967.19183 1400.2341 2899.7676
-796.76611 1504.7706 2712.8389
546.82379 1413.1787 2983
826.76678 1504.078 1851.7638
-717.11499 1504.5812 1922.8672
866.79663 1511.1311 2326.5979
-708.95905 1407.7415 2232.3044
828.75995 1441.8549 2322.5508
-732.80817 1429.0332 2998.749
857.19769 1514.7706 2373.1555
-832.80817 1443.8909 2086.636
-320.24176 1514.7706 2840.2288
-207.83441 1443.4845 1335
-206.73027 1449.3671 1263
-738.66309 1514.7706 2246.4944
787.65625 1504.7706 1570.0629
-500.90927 1431.8597 2684.8628
-597.92456 1452.6655 2630.7915
819.36755 1458.454 1960.1725
887.19183 1455.6477 2078.4448
853.97498 1479.7706 2995.7422
-160.03758 1422.799 2900.9197
802.13385 1409.4277 1903.6003
966.77582 1499.679 1268.3735
-832.80817 1441.8765 1995.1378
883.19183 1446.8927 2102.9092
967.19183 1416.564 2245.4509
725.56757 1402.8022 1737.1465
834.55292 1405.5863 3047
887.19183 1435.1691 2240.2117
891.72137 1496.532 1953.3289
844.2793 1504.7706 2833.2878
-288.86011 1509.175 2893.5583
-674.41388 1504.7706 1333.6031
-362.3338 1494.6573 1507.8094
-709.68445 1506.3599 2150.1174
564.87366 1409.6123 1335
-824.80817 1420.1605 2175.0469
887.19183 1419.4518 1503.0786
737.62994 1402.5592 2547.2483
540.64819 1422.4452 2821.7607
-752.80817 1430.1008 2012.5215
883.19183 1445.1483 1982.9735
-620.19635 1439.7413 1327
-225.83839 1502.746 2920.6631
453.07703 1438.8441 1477.2594
-369.98474 1514.7706 2846.8438
170.98521 1485.0718 2966.2371
-824.80817 1432.1226 1890.3573
-435.32742 1462.7919 1255
683.15564 1446.0696 1681.4788
868.65857 1403.8994 1262.0184
-619.73926 1514.7706 2534.6313
-824.80817 1446.8263 1683.4355
-778.60913 1503.7129 2212.8689
810.23511 1504.7706 3044.6807
959.19183 1439.7388 1736.8507
365.71558 1501.1721 1391.4468
-650.44965 1453.1521 2460.4392
-83.801872 1408.3239 2975
30.814665 1430.5389 2975
959.19183 1429.3579 1988.8698
-824.80817 1410.5498 2698.5986
93.036224 1417.1323 1255
967.19183 1408.9458 2924.2209
833.93518 1414.236 2012.9729
650.77612 1409.2291 2727.9822
718.98151 1440.1097 1732.4529
-545.79492 1450.1326 1255
-639.59711 1487.964 2833.5261
895.19183 1404.4319 1889.5642
-661.17554 1514.7706 2455.0588
-469.25229 1419.9922 2983
959.19183 1419.6992 2035.818
293.84164 1402.9868 2975
-832.80817 1407.0375 3014.0522
752.46039 1504.7706 3027.2461
765.2251 1458.3674 1813.7695
-42.086681 1436.0852 1385.8927
656.00006 1514.4783 1548.5667
-193.58961 1413.2947 1335
-712.66187 1514.7706 2210.5894
-28.597811 1455.728 1335
-760.80817 1445.634 2045.7118
-284.10074 1444.157 1462.1626
296.4231 1406.7793 2897.3315
-824.80817 1409.0933 2851.9377
388.10327 1421.3693 2975
913.71051 1501.3491 2217.249
-357.36746 1411.6787 2856.4409
-535.54291 1496.7062 2649.8286
-473.3649 1411.4987 2768.6704
-752.80817 1431.9968 2286.6636
-311.67307 1514.7706 2882.2195
335.4285 1499.6647 2929.7966
445.25037 1503.257 2913.825
847.14282 1417.4291 2153.0347
-334.38107 1443.2292 1327
-554.88214 1508.4786 2685.8147
931.42389 1504.7706 1385.4906
-771.56573 1504.7706 2988.7131
-402.8082 1501.132 1315.3727
-607.41565 1433.3173 1692.6849
-760.80817 1407.9352 1527.166
-46.764427 1463.4595 1327
465.9498 1427.1548 2825.3638
861.06036 1504.7706 1618.077
-832.80817 1452.5758 1925.2217
-562.19873 1439.4177 2975
959.19183 1432.5657 2266.344
-798.41742 1504.7706 1315.504
-802.85095 1445.1818 2955
887.19183 1459.9337 1667.1873
-732.80817 1420.9746 1256.0775
-714.61414 1504.7706 3002.6211
-627.08124 1500.7263 2840.8462
-757.80579 1504.7706 1683.7924
-569.72736 1417.9885 1335
887.19183 1402.5151 1620.3394
-760.80817 1435.594 1966.6176
-597.03046 1406.9447 1674.4667
798.44781 1494.3141 1255
906.14325 1498.1707 2277.2532
530.44592 1432.5784 2831.3916
745.42767 1432.0121 3047
-719.52887 1421.4528 3047
749.38599 1490.3435 3055
-328.8082 1434.026 1426.3367
895.19183 1424.1329 1903.7561
887.19183 1408.6072 2425.6523
-752.80817 1458.7787 1796.8102
-677.00543 1504.7706 1285.9874
-778.21478 1433.7494 3063
960.1651 1442.0522 1256.4613
-674.5661 1423.4851 1755
-739.10822 1413.1707 1296.9138
756.65875 1510.3494 2647.5083
402.5275 1431.3248 1335
510.21478 1424.9108 1465.2511
-351.36078 1449.2319 1327
843.38745 1421.1831 2186.7419
92.82991 1431.868 1327
694.51605 1404.3947 1255
-568.80994 1514.7706 2609.0532
49.875778 1436.6509 1327
-832.80817 1403.2382 2949.9458
352.65466 1514.7706 2936.8789
-743.48224 1495.0939 2046.4821
475.43201 1416.2756 2866.0508
-752.80817 1411.8649 1707.8574
-760.80817 1432.183 1644.8077
-734.86346 1501.4535 1994.6329
332.37128 1500.309 2930.803
967.19183 1447.3032 1858.0841
887.19183 1446.0913 2269.2976
-332.8082 1431.0212 1422.4489
127.39074 1438.5753 3055
960.35358 1479.7706 3039.8323
255.93065 1430.8013 1398.4197
-832.80817 1446.4271 1628.1562
-231.3839 1433.3435 1335
333.26599 1418.09 1422.0425
114.77281 1486.9801 2973.4705
959.19183 1440.9147 1970.9702
-46.387089 1450.6808 1335
650.48975 1490.0076 3055
686.25696 1426.0453 2624.2979
-82.690186 1504.7169 2990.5942
212.19002 1418.0438 3055
946.86414 1504.7706 3024.6646
-752.54248 1502.2371 2141.3733
369.29733 1408.145 2971
833.67902 1491.337 2298.48
401.36621 1512.1378 2859.5356
157.15697 1452.6405 1335
936.98285 1408.1749 3055
-557.46124 1410.076 1624.1141
-563.03693 1437.3671 2983
847.19714 1504.7706 2822.6528
721.82159 1514.7706 2615.833
531.8255 1450.0958 1528.7432
881.11938 1514.7706 2155.9023
814.96252 1483.6415 2486.4102
-748.80817 1456.4292 2274.0208
-133.68027 1424.3606 3047
967.19183 1412.9323 2116.5881
887.19183 1453.4838 2178.6895
506.99991 1418.4343 3047
967.19183 1441.9155 1396.4241
967.19183 1405.6992 1479.9734
585.58856 1447.6902 2975
967.19183 1446.031 1864.25
895.19183 1451.3086 1892.525
-832.80817 1495.7693 2836.5923
100.25602 1505.0433 2931.1621
-215.47778 1404.6017 1339
739.13934 1444.6985 1335
-331.20084 1442.6056 3047
372.28824 1408.1067 1440.4432
99.91423 1415.7103 1339
838.96002 1504.7706 2781.2112
-341.85184 1431.1333 2815.5513
764.66907 1514.7706 1765.4803
776.23071 1455.9255 1837.7224
-199.34598 1452.2974 2887.7888
-743.80951 1489.6213 2261.1086
-312.59381 1510.6366 1430.6353
-824.80817 1429.6445 2647.7036
493.07388 1514.7706 2814.3501
795.94501 1504.7706 3051.2407
-518.69434 1452.8285 2725.5645
-624.96527 1508.5583 1795.8973
798.66052 1444.142 1884.4238
283.45642 1442.458 2904.3018
-752.67877 1490.6428 2154.8943
714.31512 1512.0273 2654.9683
-656.28308 1499.2313 1375.6727
-454.85931 1400.3896 1525.3666
-407.42502 1491.2001 2773.6948
-466.06424 1504.7706 1392.1467
785.57935 1409.9697 1255
-692.76227 1421.7887 2316.3247
562.10596 1400.3676 1501.3962
779.32581 1514.7706 2570.0867
967.19183 1436.6019 2263.4229
887.19183 1400.4807 2939.7227
56.614418 1493.0051 2931.7319
895.19183 1457.3014 1950.2318
-780.97968 1501.3464 2123.6038
665.88721 1500.558 1554.7926
-726.99377 1500.1342 1659.1855
-350.12039 1511.3363 2810.2397
-111.43862 1455.3405 1335
895.19183 1408.984 2541.5039
883.19183 1418.9172 2197.5491
779.97437 1504.7706 1571.4225
-824.80817 1416.0439 1651.9955
147.14777 1489.4648 2969.0366
-358.10123 1443.1729 1335
841.32501 1412.6631 2248.5493
-328.8082 1401.0941 1433.2223
41.977959 1509.8871 1375.5303
-601.16876 1510.3019 1753.1194
161.48822 1482.4161 2926.0154
549.04358 1431.6654 2983
-760.80817 1426.2299 2912.7148
959.19183 1402.2303 1471.8965
-266.26089 1429.0563 1335
959.19183 1432.5134 2922.281
115.85378 1449.1566 1376.7006
-660.31647 1494.2677 2717.4917
-832.80817 1429.0853 2904.3586
959.19183 1431.0342 2888.1404
-546.18542 1426.5131 2983
876.82245 1504.7706 2775.4412
-544.73157 1504.7706 3004.0742
-534.54651 1452.4843 3055
-38.230423 1409.7493 2983
512.47534 1407.0167 1514.8456
241.57909 1452.8571 1335
870.56061 1505.645 2424.9819
-760.80817 1415.3666 1522.9047
676.73517 1504.7706 1313.8553
-16.256611 1445.278 2927.397
967.19183 1502.0393 1614.9373
761.09296 1431.2091 1718.5342
926.20428 1410.9368 2961.3
887.19183 1444.6044 1670.7054
-732.59894 1436.7241 1759
388.25046 1410.5734 2983
-804.65222 1444.3665 3048.7
-425.78775 1507.6257 2807.5774
484.4046 1408.7987 1449.1434
915.75513 1501.5021 2175.5681
-807.93939 1504.7706 1450.3904
-752.80817 1433.9146 1858.226
-832.80817 1441.1143 1524.2875
895.19183 1437.47 1708.6622
-293.26553 1483.9935 2889.2344
967.19183 1432.9728 2285.1975
887.19183 1434.434 2323.4558
468.85977 1440.4857 2867.5623
706.22174 1448.454 2975
68.262672 1456.4039 1255
767.81323 1406.1147 2555
-760.80817 1451.4449 2852.6265
208.35153 1510.3701 2960.4958
765.01971 1502.2163 1724.7352
306.4512 1427.6091 2894.0918
-495.1738 1434.2375 1618.8743
391.33243 1418.3878 2860.8855
895.19183 1437.5309 1856.0302
477.55902 1417.6116 2862.5181
-523.64642 1499.2758 1589.6368
-824.80817 1415.8086 2930.657
887.19183 1411.1113 2155.8782
820.95734 1413.9927 2342.9929
686.45203 1440.5206 2692.1377
-752.80817 1447.464 1981.6025
393.28613 1406.0804 1327
954.39264 1504.7706 2631.1216
-760.80817 1458.1285 1821.0107
-752.80817 1408.8168 2689.8645
869.96869 1504.7706 2768.199
-137.45226 1514.7706 2948.644
-14.842138 1414.7108 1327
544.05927 1514.7706 2843.2722
-344.61957 1431.9767 1263
-13.090202 1410.3436 1379.3817
84.557228 1514.7706 2958.3777
873.49182 1458.1224 1324.6733
-752.80817 1438.9999 2143.3584
694.22491 1459.4777 1691.3623
-760.80817 1461.1989 1421.3116
-760.80817 1400.2075 1713.4474
887.19183 1401.6573 2112.2886
341.58783 1447.1864 2881.8201
913.20392 1511.8293 2114.6301
524.29718 1451.0907 2783.0183
-390.53574 1514.7706 2798.189
742.56195 1504.3817 1426.2419
74.204636 1514.7706 2954.8618
452.42017 1510.865 1401.407
878.19794 1435.8539 1261.6171
-314.17148 1440.838 1478.1543
-732.80817 1460.3634 1328.8304
975.19183 1431.358 3009.4421
967.19183 1439.5887 2245.054
-832.80817 1401.9921 1840.4438
-417.08289 1456.1322 1493.4127
-383.57983 1426.5409 2787.6692
967.19183 1427.0222 2512.1023
846.52899 1428.5652 2128.4214
-625.54517 1504.0303 2645.8284
-748.80817 1415.0026 2042.5798
-707.03894 1440.531 2092.3767
883.19183 1407.8588 2241.1211
-752.80817 1416.6577 1735.0966
-832.80817 1443.7083 2279.5791
-546.32605 1402.281 3055
-692.58008 1439.9545 1263
895.19183 1407.4248 2211.9529
-121.222 1416.2007 2971
895.19183 1412.8517 2269.8462
42.950142 1420.9374 2934.5183
880.16351 1402.2249 3055
-683.40485 1497.3682 2549.196
955.38593 1483.2435 3054.3357
-157.65872 1436.5754 1263
-732.80817 1432.9174 1294.1168
967.19183 1499.2745 1296.2413
-752.80817 1453.6371 2288.1296
891.35022 1514.7706 2036.411
-482.00272 1504.7706 1361.5557
959.19183 1437.5267 2457.4956
-690.48926 1505.4381 1970.4188
887.19183 1456.2535 2197.1499
348.15143 1456.2396 1335
538.43787 1448.0223 2825.7629
567.58319 1446.2817 1335
840.77795 1490.5566 2226.0876
-832.80817 1438.7805 2400.1357
-814.37061 1504.7706 2659.7832
848.5697 1504.7706 1642.4827
-643.67102 1510.2644 1841.6919
-170.31686 1488.8329 2897.749
484.14621 1434.8337 1495.9717
-488.06577 1442.6935 2755.4595
-820.30817 1429.3712 3062.2126
-512.28424 1421.972 1574.8378
-606.35229 1457.189 1759
-602.49963 1514.7706 2658.1001
873.49182 1415.2784 1300.4612
-448.31702 1496.3745 2789.9954
111.12576 1450.2468 1335
692.32886 1415.8763 1688.7251
-489.57385 1411.0352 3055
-466.13043 1504.7706 2923.2637
-613.97205 1434.2943 2607.843
-413.69986 1403.7606 1327
-760.80817 1419.7915 1424.7941
887.19183 1421.4316 1475.0425
209.92993 1432.0878 3047
887.19183 1407.4067 2926.2385
118.92319 1457.3408 1379.9398
360.64673 1437.6956 2983
738.45093 1514.7706 1730.5563
-518.92896 1410.2186 1645.0824
-617.02032 1505.3074 1780.5751
-752.80817 1445.3759 2784.9126
-47.743965 1419.0415 1335
842.62146 1462.7802 1327
-752.80817 1447.4821 2022.2349
895.19183 1403.6001 1746.4469
283.36258 1410.0697 1327
-752.80817 1412.7462 2220.3806
-824.80817 1415.5905 2583.0688
121.52635 1449.1412 2983
205.09851 1428.8049 1255
504.13269 1429.1023 1512.6965
-112.52761 1516.7621 2975.2996
582.74445 1511.0032 2736.0298
883.19183 1437.7881 1759.2095
479.70355 1422.8704 2816.7432
-672.95221 1504.7706 1310.5529
-657.44629 1504.7706 1491.916
-753.35651 1504.7706 1346.428
959.19183 1401.9398 2488.7292
614.28601 1479.7706 3042.8997
-473.71365 1404.2456 1541.6304
454.55533 1486.9746 2877.5947
-544.9671 1444.0958 2983
-672.93829 1427.4176 2400.4358
-786.68347 1504.7706 2716.0259
878.15448 1504.7706 1382.0205
250.13196 1506.8632 1326.6704
359.39612 1511.5322 2950.2126
-826.50818 1449.2648 1273.5796
235.47734 1431.337 1339
-824.80817 1449.5662 2401.9126
-840.80817 1434.3544 1267.5599
26.71327 1410.395 1379.0829
-563.80005 1410.9182 2675.4763
-709.02795 1438.6378 2185.7893
-752.80817 1447.0146 1885.0304
180.24454 1429.162 2923.6267
-760.80817 1434.7473 1593.3483
-760.80817 1445.9697 1789.2748
753.966 1504.7706 2939.6245
895.19183 1408.7726 2542.188
-731.37164 1494.7706 1869.6289
-439.37003 1454.7609 1513.0223
846.18695 1479.7706 2994.0928
-85.798378 1510.9861 1322.8512
420.30188 1456.277 1335
-665.58319 1504.7706 2946.9468
-680.38092 1420.9083 1933.0024
-581.81647 1417.7448 2652.553
-358.46469 1406.0111 2804.7405
-478.13568 1444.0649 1335
17.678955 1412.1097 2930.2292
355.35605 1491.5991 1433.6797
-760.80817 1433.8611 2260.8921
1.0871446 1514.7706 2966.613
284.13614 1452.9349 1327
-258.5322 1420.8196 1335
571.45361 1504.7706 1343.5475
261.2291 1485.344 2951.6572
55.037628 1420.3718 1339
-609.51581 1504.7706 2851.1025
170.96243 1415.3365 2971
831.94452 1514.7706 2334.4382
-398.64365 1513.9523 2860.3984
-832.80817 1429.8076 1929.9565
852.92303 1504.7706 2811.8796
-692.68341 1514.7706 2468.8611
375.56039 1490.5265 2868.1323
-554.85876 1514.7706 2696.0342
780.46808 1493.9258 1839.8866
25.579899 1416.3152 2975
-162.3546 1483.8492 2900.2048
-541.80304 1409.2605 1668.0214
404.97531 1492.0404 1407.9133
584.55536 1433.5526 1518.9159
265.46979 1419.0892 1335
783.54944 1431.6243 1759
-152.3446 1453.4082 1335
463.1918 1407.6876 2854.1597
-824.80817 1411.4971 2195.229
-205.86363 1514.7706 2886.7029
-824.80817 1454.5387 2183.1985
-284.01938 1402.7358 1263
721.16333 1435.7588 2574.2366
-477.74799 1504.7706 2939.386
101.52511 1499.9093 1375.9855
883.19183 1444.254 1918.2994
821.00549 1504.7706 1336.6935
588.4516 1436.631 2983
-824.80817 1414.3593 2418.5217
-824.80817 1415.056 2162.8843
-364.28769 1437.1285 2983
842.28638 1454.2494 2206.2798
589.10504 1498.6229 2823.051
883.19183 1425.4403 2195.5059
-832.80817 1420.2037 2687.0498
-706.88599 1408.2583 1255
-413.88065 1413.2272 1263
758.65326 1423.2068 2555
883.19183 1400.1394 2491.5674
648.70477 1431.7234 1635.4935
967.19183 1401.0509 2195.1401
-622.0849 1501.2546 2914.907
-506.7529 1448.5353 2683.0823
-474.62314 1436.585 2975
463.1918 1435.446 1432.3566
465.23746 1418.417 2822.0254
-407.85202 1445.0781 2769.8457
-591.91333 1402.3843 3047
-224.13155 1461.2384 1339
-832.80817 1411.3318 2468.6506
-817.79919 1504.7706 2989.5288
-752.80817 1439.2091 2142.407
-254.20079 1501.3524 1447.8518
758.48633 1504.7706 1354.8607
-752.80817 1447.5311 1797.9203
-695.84106 1514.7706 2438.9736
-553.07062 1426.1597 1335
-832.80817 1455.363 2271.2043
829.05084 1514.7706 2412.873
365.7637 1482.1055 2918.6458
851.71021 1432.1509 2555
902.36292 1514.7706 2189.4712
-531.48041 1450.7291 1655.0771
-752.80817 1435.4581 1818.6978
319.35352 1434.4071 1416.9786
884.81677 1495.3939 2135.3999
-328.62704 1463.8463 1255.012
-693.26794 1495.2474 2327.407
755.45013 1435.6046 3055
-667.92938 1404.7549 2551
396.26672 1514.7706 2898.7175
-748.80817 1418 2193.5054
