# .PCD v0.7 - Point Cloud Data file format
VERSION 0.7
FIELDS x y z
SIZE 4 4 4
TYPE F F F
COUNT 1 1 1
WIDTH 1612
HEIGHT 1
VIEWPOINT 0 0 0 1 0 0 0
POINTS 1612
DATA ascii
1078.1339 1000.2298 2553.0398
1075.7826 999.11963 2545.3821
1074.7134 999.54266 2541.6519
1072.2637 998.65973 2534.6208
1070.7028 998.57507 2529.6389
1068.7845 998.07245 2523.6187
1067.0226 997.89148 2518.4326
1064.7979 997.08099 2511.6804
1061.8846 995.70807 2503.5391
1059.5293 994.84894 2496.7178
1297.9777 1050.6816 3248.1877
1295.3396 1050.3202 3239.6335
1292.7318 1049.9834 3231.1943
1289.6567 1049.2881 3221.6931
1286.6514 1048.6237 3212.3291
1283.8274 1048.3605 3204.2344
1280.5914 1047.2745 3193.6675
1277.9969 1046.9623 3185.502
1275.2428 1046.4294 3176.7041
1272.1847 1045.4458 3166.5798
1268.705 1044.2327 3155.8079
1265.8851 1043.8759 3147.666
1263.3024 1043.5308 3139.5959
1259.7163 1042.2496 3128.752
1256.8826 1041.6987 3120.1431
1254.4458 1041.2426 3111.8557
1251.5914 1040.5752 3102.9756
1248.4705 1039.6515 3093.3716
1245.0272 1038.5651 3083.3269
1242.8197 1038.5349 3076.4553
1241.0145 1038.7982 3070.4817
1237.6318 1037.5554 3060.0923
1234.7876 1036.748 3051.0293
1232.0588 1036.2158 3042.814
1229.4288 1035.6251 3034.4629
1227.1613 1035.4866 3027.4702
1224.2993 1034.6865 3018.5776
1221.3177 1033.5376 3008.7083
1218.7969 1033.209 3001.2642
1215.9757 1032.2333 2991.9766
1213.7107 1032.1392 2985.2788
1210.8788 1031.2963 2976.4482
1207.7008 1030.1129 2966.6753
1205.4274 1029.8029 2959.4539
1202.8674 1029.2095 2951.4507
1201.0913 1029.4153 2945.7681
1197.7826 1027.8809 2935.1404
1195.1136 1027.2205 2927.0483
1192.759 1027.03 2920.3271
1190.0544 1026.1672 2911.7261
1187.4458 1025.4686 2903.626
1185.1718 1025.1853 2896.7332
1182.714 1024.718 2889.3508
1180.5471 1024.3457 2882.2664
1177.8945 1023.5957 2874.1511
1175.7267 1023.3248 2867.4124
1173.6525 1023.0644 2860.7305
1171.38 1022.6191 2853.5603
1168.9053 1021.9543 2845.8088
1166.1747 1021.0113 2837.3162
1163.7699 1020.4656 2829.9602
1162.0284 1020.5191 2824.293
1159.8235 1020.0965 2817.3337
1157.3059 1019.2851 2809.3318
1155.2615 1019.0776 2803.0232
1152.3981 1018.0402 2794.4624
1150.5458 1017.9633 2788.5676
1148.2181 1017.3823 2781.3186
1145.6278 1016.4791 2773.2202
1143.7119 1016.2933 2767.1074
1141.2649 1015.5878 2759.6074
1138.7983 1014.8112 2751.9448
1136.3154 1014.0309 2744.3032
1134.2778 1013.6288 2737.7131
1131.8947 1013.0643 2730.7119
1129.7588 1012.691 2724.2532
1127.8345 1012.3835 2717.9968
1125.3169 1011.3871 2709.9194
1123.1364 1010.9643 2703.4082
1121.2046 1010.7701 2697.5327
1119.1174 1010.344 2691.0627
1117.0978 1009.705 2684.0522
1114.3969 1008.7037 2676.1084
1112.6357 1008.551 2670.4426
1110.8237 1008.3272 2664.6113
1107.9482 1006.8921 2655.6079
1106.52 1007.3344 2651.5815
1104.0961 1006.2664 2643.6035
1102.4586 1006.359 2638.6995
1100.269 1005.6884 2631.8169
1098.2533 1005.3886 2625.9299
1096.4968 1005.2055 2620.3696
1094.4418 1004.7185 2614.0403
1092.3424 1004.1971 2607.6462
1090.4357 1003.7358 2601.4321
1088.2295 1003.0631 2594.6956
1085.9777 1002.5239 2588.3291
1084.1411 1002.1126 2582.3167
1082.4651 1001.8984 2576.834
1081.1016 1001.9811 2572.1345
1078.9164 1001.3121 2565.5273
1076.9626 1000.7966 2559.3374
1075.1652 1000.4399 2553.5762
1072.9954 999.74677 2546.9797
1071.3145 999.5448 2541.6572
1069.3322 999.16772 2535.9102
1067.3949 998.54321 2529.5581
1065.5887 998.25891 2524.0901
1063.5914 997.70093 2517.9517
1061.9141 997.48761 2512.7048
1059.5026 996.48395 2505.49
1058.8761 997.146 2502.4824
1293.3049 1050.7876 3248.5151
1290.0234 1049.9652 3238.5386
1287.8749 1049.9869 3231.2051
1284.2789 1048.788 3220.1575
1280.7987 1047.5753 3209.1177
1277.9807 1047.2426 3200.8176
1275.517 1047.137 3193.248
1272.4698 1046.2354 3183.29
1269.2344 1045.2133 3173.0117
1266.1641 1044.5608 3163.8994
1263.3619 1044.1183 3155.4622
1260.6381 1043.5104 3146.564
1257.8757 1042.9456 3137.8352
1255.0785 1042.3828 3129.1516
1252.5948 1042.1411 3121.4683
1249.0929 1040.5939 3109.9172
1246.5944 1040.3811 3102.3965
1243.9119 1039.7279 3093.5991
1241.3289 1039.3608 3085.6895
1238.1866 1038.4912 3076.3259
1235.4695 1037.6562 3067.1064
1233.3551 1037.88 3061.0493
1230.1998 1036.6478 3050.7341
1227.3188 1035.9226 3041.9526
1224.636 1035.3878 3033.7676
1222.1732 1035.0238 3026.1172
1219.0952 1033.9956 3016.562
1216.592 1033.5408 3008.7175
1213.9188 1032.9376 3000.4761
1211.6482 1032.5989 2993.0364
1208.7701 1031.7675 2984.2036
1205.8389 1030.8265 2975.0928
1203.1246 1030.1031 2966.6472
1200.635 1029.5074 2958.605
1197.5004 1028.384 2949.0835
1195.537 1028.285 2942.5339
1193.0039 1027.7347 2934.7234
1190.4259 1027.1661 2926.8938
1188.0972 1026.877 2919.8916
1185.5795 1026.1113 2911.5674
1183.5859 1025.8779 2904.7849
1180.7601 1025.0381 2896.3174
1178.106 1024.217 2887.9385
1175.8459 1023.8701 2880.9282
1173.7678 1023.5713 2874.0828
1171.2085 1022.8729 2866.146
1169.0936 1022.5973 2859.4243
1166.3218 1021.7765 2851.2092
1164.0302 1021.403 2844.2737
1161.897 1021.1305 2837.6475
1159.7762 1020.8665 2831.072
1157.486 1020.2918 2823.6638
1154.7861 1019.3731 2815.3359
1152.4409 1018.8339 2808.0881
1150.4415 1018.4952 2801.4214
1147.8726 1017.612 2793.2871
1145.2115 1016.7769 2785.3176
1143.1212 1016.4143 2778.6724
1140.8907 1015.901 2771.6431
1138.8497 1015.6688 2765.4072
1136.3422 1014.7253 2757.2639
1134.1124 1014.3265 2750.6304
1132.1255 1014.0555 2744.3694
1129.8081 1013.2873 2736.791
1127.6643 1012.813 2730.0347
1125.8645 1012.7612 2724.4421
1123.6315 1012.2147 2717.5437
1121.2042 1011.4179 2710.0022
1118.7664 1010.4673 2702.0793
1116.6238 1010.1151 2695.7844
1114.67 1009.698 2689.342
1112.4379 1009.0168 2682.2231
1109.9879 1008.3853 2675.2637
1108.3828 1008.4978 2670.3018
1106.4811 1007.8962 2663.4724
1103.6532 1006.7256 2655.1687
1102.2277 1007.2825 2651.4453
1100.3098 1006.7062 2644.7588
1097.6692 1005.4828 2636.4021
1096.0531 1005.6553 2631.7305
1094.002 1005.2902 2625.6729
1092.2717 1005.0234 2619.895
1090.0374 1004.1777 2612.6335
1088.2496 1003.9078 2606.8948
1086.1992 1003.3893 2600.5344
1084.1095 1002.8381 2594.1135
1082.4164 1002.7663 2588.9548
1080.1342 1001.8438 2581.624
1078.3228 1001.5908 2576.043
1076.5764 1001.3606 2570.5417
1074.5802 1000.8162 2564.2566
1072.691 1000.4073 2558.3418
1071.0626 1000.1765 2552.9036
1068.9979 999.70178 2546.865
1066.7312 998.95331 2540.1531
1065.4003 999.03448 2535.572
1063.2953 998.20605 2528.7039
1061.4738 997.94543 2523.2974
1059.9879 997.91943 2518.5032
1057.6713 997.02448 2511.5381
1057.6016 998.19196 2509.7844
1055.1766 997.17847 2502.564
1284.6285 1049.3379 3236.6035
1282.7153 1049.6364 3230.1265
1278.0498 1047.4437 3216.0303
1276.0072 1047.7589 3209.6802
1273.7133 1047.8447 3202.6582
1270.1165 1046.4508 3191.1555
1267.7614 1046.5076 3184.1187
1264.4492 1045.4564 3173.7502
1261.4105 1044.6283 3164.1038
1258.8425 1044.1472 3155.5496
1256.1533 1043.6194 3146.8928
1253.1556 1042.7662 3137.2959
1250.5509 1042.4736 3129.4241
1247.377 1041.3893 3119.2161
1244.1517 1040.5051 3109.6519
1241.9293 1040.4908 3102.7241
1239.0917 1039.4098 3092.6523
1236.5011 1038.9987 3084.6143
1234.2009 1038.8322 3077.3362
1231.3599 1038.3209 3069.071
1228.0266 1037.1857 3059.0017
1226.0347 1037.2223 3052.425
1223.3701 1036.5563 3043.8135
1219.929 1035.3164 3033.5581
1217.2987 1034.5836 3024.8301
1214.1215 1033.6177 3015.4595
1211.9092 1033.4065 3008.3267
1208.5135 1031.8651 2997.3604
1206.2135 1031.6379 2990.251
1204.0638 1031.441 2983.2595
1201.2264 1030.4989 2974.1472
1198.3051 1029.8168 2965.8225
1196.1694 1029.6852 2959.1157
1192.9316 1028.3918 2949.1057
1191.8041 1028.8787 2944.2327
1188.7374 1027.7032 2934.6335
1185.9198 1026.6262 2925.3552
1184.235 1027.1737 2920.7356
1181.7451 1026.6265 2913.0288
1179.6113 1026.3182 2906.0315
1176.7769 1025.4818 2897.571
1174.5673 1025.1788 2890.6504
1171.9712 1024.4805 2882.646
1169.1147 1023.2346 2873.1375
1166.9973 1022.9857 2866.4619
1164.462 1022.3597 2858.76
1161.5929 1021.3535 2850.0286
1159.5739 1021.1665 2843.6152
1157.1277 1020.5461 2836.0234
1154.9858 1020.264 2829.4014
1152.6349 1019.5672 2821.6584
1150.2434 1018.9968 2814.2966
1148.3446 1018.874 2808.1985
1145.3114 1017.7002 2799.2346
1143.579 1017.5526 2793.124
1141.6959 1017.3024 2786.7571
1139.1273 1016.4576 2778.791
1136.9901 1016.1423 2772.3013
1134.5527 1015.3115 2764.4343
1131.9146 1014.1874 2755.8022
1130.1771 1014.2283 2750.364
1128.4897 1014.4525 2745.4438
1126.1832 1013.7359 2738.0024
1123.6152 1012.9589 2730.428
1121.2834 1012.2079 2722.9539
1119.1715 1011.7441 2716.2805
1116.9348 1011.1422 2709.2634
1115.0433 1011.0874 2703.7373
1112.6385 1010.1941 2695.9954
1109.9506 1009.0095 2687.5083
1108.0464 1008.7524 2681.52
1106.0555 1008.4653 2675.4761
1103.9974 1007.9609 2668.8804
1102.6119 1008.1307 2664.092
1099.5088 1006.7448 2655.2195
1097.4502 1006.2697 2648.7791
1095.9598 1006.1444 2643.283
1093.8328 1005.7047 2636.9836
1091.2068 1004.3438 2628.2983
1089.6124 1004.5235 2623.6704
1088.4058 1004.8654 2619.4832
1086.4934 1004.4932 2613.4543
1084.4104 1003.8893 2606.8467
1082.8395 1003.9617 2602.0176
1080.6062 1003.1505 2594.9214
1078.1287 1002.1378 2587.3323
1076.5754 1002.1561 2582.4287
1074.3597 1001.4011 2575.5552
1072.9769 1001.5775 2571.0986
1070.6699 1000.6444 2563.8164
1068.6377 1000.2294 2557.887
1066.9796 999.96075 2552.353
1064.775 999.18469 2545.5479
1063.3651 999.35693 2541.1794
1061.7656 999.1571 2535.8833
1058.3684 996.95355 2525.5312
1057.3765 997.55603 2522.3127
1055.8413 997.59753 2517.6909
1053.7483 996.75037 2510.8477
1053.8782 998.1991 2509.8025
1051.547 997.34686 2502.9866
1283.5719 1050.2118 3246.7351
1280.5458 1049.5514 3237.2625
1278.6189 1049.7489 3230.4729
1274.9233 1048.1923 3218.3281
1271.2815 1046.8939 3207.0303
1269.5134 1047.6643 3202.1067
1266.6918 1047.1201 3193.1965
1263.9591 1046.2773 3183.418
1260.4866 1045.1869 3172.9319
1257.6576 1044.6306 3164.1106
1254.4719 1043.5876 3153.8584
1251.8036 1043.0284 3145.1108
1249.7029 1043.1691 3138.5078
1247.1653 1043.0475 3131.147
1244.0964 1042.2129 3121.6833
1240.463 1040.5629 3109.8245
1237.5757 1039.7747 3100.5881
1235.1504 1039.4498 3092.7717
1231.8737 1038.3756 3082.7644
1229.3724 1038.2726 3075.6785
1226.7783 1037.7518 3067.3889
1223.4225 1036.3973 3056.6768
1220.641 1035.6656 3047.8438
1217.9431 1034.9302 3039.0383
1215.6018 1034.7094 3031.7795
1213.5272 1034.7404 3025.2883
1210.7698 1033.8247 3016.0635
1207.9023 1032.901 3006.8552
1205.5193 1032.6759 2999.7158
1203.2274 1032.4619 2992.6392
1199.976 1031.05 2982.1287
1197.0428 1030.1642 2973.1812
1195.1298 1030.2052 2966.9412
1192.229 1029.238 2957.8306
1189.595 1028.6204 2949.7612
1187.8477 1028.6459 2943.5664
1184.7081 1027.3008 2933.4841
1182.4779 1027.1443 2926.8315
1180.361 1027.157 2920.688
1177.5156 1026.0032 2911.2603
1175.0909 1025.2784 2903.0874
1172.4738 1024.6393 2895.1907
1169.693 1023.6324 2886.29
1167.4954 1023.3218 2879.3855
1165.1669 1023.0612 2872.6504
1162.6958 1022.4565 2864.9792
1160.4664 1021.8362 2857.2964
1157.5464 1020.6569 2848.0852
1155.8054 1020.7868 2842.5576
1153.8033 1020.6334 2836.2659
1151.1384 1019.7403 2827.9487
1149.4054 1020.0311 2822.9421
1146.7747 1019.0641 2814.4824
1144.7515 1018.7607 2807.8862
1142.234 1018.0284 2800.1375
1140.0814 1017.3327 2792.5205
1137.8754 1016.7138 2785.145
1135.9125 1016.8749 2779.9316
1133.907 1016.6384 2773.6545
1131.6917 1016.0013 2766.3127
1128.9915 1015.0419 2758.1243
1126.9769 1014.8173 2751.9614
1124.3075 1013.6671 2743.3184
1122.329 1013.3356 2736.9211
1119.6879 1012.2819 2728.603
1117.6573 1011.8499 2721.9905
1115.5723 1011.4208 2715.4126
1112.989 1010.7729 2708.2739
1110.6753 1009.9058 2700.5774
1108.5671 1009.168 2693.2571
1106.1969 1008.5343 2686.2424
1104.4504 1008.5172 2680.8948
1102.4465 1008.1893 2674.7437
1100.6217 1007.8953 2668.7065
1098.5875 1007.2711 2661.8206
1096.4207 1006.4322 2654.395
1094.67 1006.6238 2649.7114
1093.3152 1006.9014 2645.2717
1091.125 1006.1563 2638.168
1089.173 1005.8187 2632.158
1086.3076 1004.2784 2623.0303
1084.6627 1004.3067 2618.0266
1082.936 1004.0862 2612.3953
1080.6108 1003.3913 2605.5537
1079.0591 1003.3301 2600.3806
1076.6975 1002.2959 2592.7109
1075.0271 1002.1534 2587.3726
1073.1196 1001.6014 2580.9995
1071.2833 1001.4387 2575.6516
1069.4026 1001.1384 2569.9714
1067.7399 1000.9139 2564.5071
1065.0583 999.57751 2556.2197
1063.3856 999.51428 2551.2136
1061.7271 999.37384 2546.0298
1059.7239 998.70862 2539.531
1057.7715 998.0813 2533.1528
1055.9556 997.80829 2527.6965
1054.2581 997.35205 2521.7969
1052.1956 996.5979 2515.168
1050.318 996.38098 2509.917
1046.9633 995.65277 2498.7351
1278.9514 1049.871 3245.6816
1275.6573 1048.7822 3234.8896
1273.926 1049.4198 3229.46
1270.1007 1047.8085 3217.1501
1267.4839 1047.275 3208.1978
1265.4626 1048.032 3203.2305
1262.5033 1047.1038 3193.1467
1258.5972 1045.3398 3180.5657
1255.856 1044.8622 3171.946
1252.9535 1044.1125 3162.5417
1250.3606 1043.8696 3154.7104
1247.407 1043.1036 3145.3376
1244.483 1042.3302 3135.9839
1241.1802 1041.3099 3125.9309
1238.1382 1040.2164 3115.7034
1235.4983 1039.8214 3107.6086
1232.7673 1039.3193 3099.2305
1230.3857 1039.0154 3091.479
1227.5522 1038.3136 3082.5803
1224.5637 1037.4447 3073.2261
1222.225 1037.1125 3065.4993
1219.594 1036.4172 3056.7351
1216.6593 1035.8231 3048.3074
1214.0526 1035.1804 3039.7732
1211.7179 1034.9025 3032.3455
1209.6071 1034.6327 3024.9736
1205.9423 1032.9713 3013.5737
1203.1796 1032.2496 3004.9587
1200.7209 1031.8619 2997.3513
1198.4841 1031.6453 2990.2722
1195.8572 1030.9718 2981.9023
1193.0034 1030.1033 2973.0051
1190.7003 1029.6227 2965.2637
1188.3904 1029.3612 2958.1846
1185.1316 1028.0846 2948.2246
1182.8938 1027.6648 2940.7588
1180.1927 1026.9418 2932.4587
1178.2776 1027.0258 2926.4937
1175.7175 1026.4878 2918.7854
1172.8046 1025.2729 2909.1885
1170.5454 1024.8391 2901.8433
1168.4176 1024.6263 2895.1538
1165.6406 1023.5857 2886.1582
1163.8334 1023.6856 2880.4092
1161.536 1023.2029 2873.0483
1158.9205 1022.387 2864.7842
1156.8871 1022.2243 2858.3813
1154.4604 1021.6872 2850.96
1152.4946 1021.4613 2844.436
1149.516 1020.0925 2834.7629
1147.3583 1019.7466 2827.9663
1145.2184 1019.5511 2821.614
1142.9076 1018.9132 2814.0657
1140.844 1018.6619 2807.6138
1138.5764 1018.0573 2800.2168
1136.2595 1017.4703 2792.8979
1133.8428 1016.7974 2785.374
1131.6637 1016.3514 2778.5007
1129.3164 1015.7938 2771.3506
1127.2281 1015.2604 2764.2952
1124.6998 1014.4688 2756.5669
1122.5327 1013.9382 2749.5774
1120.2261 1013.3344 2742.418
1118.0233 1012.793 2735.4558
1115.9541 1012.3382 2728.7549
1113.4153 1011.3468 2720.6372
1111.7268 1011.4728 2715.5518
1108.8955 1009.9567 2706.0869
1107.0629 1009.8018 2700.2996
1105.6406 1010.0995 2695.7429
1102.98 1008.963 2687.3843
1100.6173 1008.1885 2680.0212
1098.5951 1007.8903 2673.9504
1096.8698 1007.5798 2667.8711
1095.0651 1007.2766 2661.835
1092.7344 1006.4686 2654.4912
1090.965 1006.533 2649.4722
1088.8986 1006.0463 2643.0251
1086.8774 1005.4248 2636.25
1084.9545 1005.0962 2630.2671
1082.9662 1004.7912 2624.3694
1081.0338 1004.3569 2618.1575
1078.6714 1003.4291 2610.6855
1076.8221 1003.0433 2604.6499
1075.1073 1002.9237 2599.3276
1073.1107 1002.372 2592.9077
1070.9983 1001.7952 2586.4478
1069.5048 1001.7039 2581.2634
1067.0376 1000.7108 2573.7795
1065.0905 1000.259 2567.7139
1063.2245 999.77539 2561.5898
1061.5569 999.62872 2556.3506
1059.8281 999.30115 2550.6697
1058.1742 999.15564 2545.4739
1056.3551 998.7442 2539.6213
1054.6691 998.4361 2534.0535
1052.75 997.99792 2528.1768
1051.1477 997.72229 2522.7332
1048.8605 996.88153 2515.8838
1047.1326 996.7298 2510.7957
1044.9486 997.16327 2502.5259
1044.327 997.79736 2499.4595
1274.2728 1050.1256 3246.4685
1271.3153 1049.4828 3237.0505
1268.0513 1048.5052 3226.6455
1264.8761 1047.6091 3216.5378
1261.8805 1046.8888 3207.0146
1259.5222 1046.9188 3199.8284
1256.2574 1045.7318 3188.9631
1253.5752 1045.2048 3180.1548
1250.8733 1044.8461 3171.897
1248.0363 1044.3558 3163.2786
1244.8517 1043.1783 3152.6213
1241.8596 1042.4669 3143.4175
1239.3459 1042.2273 3135.6741
1236.49 1041.5005 3126.5027
1233.8944 1040.953 3117.9094
1231.064 1040.2928 3109.0176
1228.4653 1039.7762 3100.593
1225.7068 1038.9678 3091.3372
1222.9843 1038.3362 3082.6475
1220.1703 1037.665 3073.8789
1217.6067 1037.0643 3065.3567
1214.746 1036.2592 3056.2688
1212.0581 1035.7444 3048.0754
1209.8547 1035.4788 3040.6492
1207.1538 1034.9448 3032.4695
1203.631 1033.3927 3021.3481
1200.8877 1032.7209 3012.8435
1198.6742 1032.4933 3005.6682
1195.9888 1031.7253 2996.9543
1193.4648 1031.089 2988.6599
1190.9912 1030.6537 2980.9822
1188.2112 1029.9268 2972.4958
1185.4399 1029.0273 2963.5493
1182.4348 1028.0061 2954.2905
1180.8547 1028.333 2948.937
1178.6482 1027.8033 2941.1553
1175.3739 1026.3887 2930.8794
1173.3356 1026.4166 2924.7581
1171.2866 1026.3914 2918.511
1168.6895 1025.4485 2909.6865
1166.4192 1025.0592 2902.4668
1163.6978 1024.132 2893.7571
1161.344 1023.7695 2886.6763
1159.0615 1023.3929 2879.5857
1156.719 1022.8171 2871.9648
1154.2026 1021.8909 2863.394
1152.1958 1021.7802 2857.1396
1149.7621 1021.0305 2849.1277
1147.4907 1020.512 2841.7925
1145.5846 1020.6168 2836.22
1142.4827 1019.3355 2826.8262
1140.5074 1019.1018 2820.3704
1138.2428 1018.5692 2813.1155
1136.2369 1018.4487 2807.0266
1133.634 1017.4016 2798.4133
1131.2681 1016.7512 2790.9241
1128.8552 1016.0036 2783.1992
1126.8341 1015.5975 2776.4395
1124.4706 1014.8356 2768.7363
1122.847 1015.0838 2763.8145
1120.3281 1014.1215 2755.623
1118.2863 1014.0125 2749.7788
1116.0308 1013.2532 2742.1985
1113.6044 1012.1163 2733.6279
1111.5762 1011.8992 2727.5715
1109.3821 1011.4553 2720.9292
1107.1984 1011.028 2714.3577
1105.1763 1010.575 2707.7434
1102.8184 1009.7144 2700.0659
1100.8422 1009.3329 2693.6973
1099.1841 1009.3149 2688.3218
1096.9187 1008.5103 2680.8765
1094.931 1008.3058 2675.0527
1092.9227 1007.8795 2668.6646
1090.5043 1006.9186 2660.8889
1088.3848 1006.311 2654.0754
1086.6121 1006.3424 2648.9705
1084.754 1005.9688 2642.8218
1082.4889 1005.1505 2635.5305
1080.1851 1004.1904 2627.8967
1078.9126 1004.5112 2623.6382
1076.6556 1003.7387 2616.5461
1074.7314 1003.4061 2610.6257
1072.6047 1002.846 2604.1377
1070.7257 1002.4753 2598.1653
1068.8501 1002.0536 2592.0842
1067.2957 1001.9615 2586.8772
1065.4905 1001.6146 2581.0334
1063.7891 1001.3398 2575.3975
1061.4613 1000.525 2568.397
1059.6614 1000.238 2562.7751
1057.7765 999.71912 2556.5818
1055.9309 999.32269 2550.7246
1054.3236 999.33142 2545.9216
1052.4128 998.64758 2539.3757
1050.3333 998.04767 2533.0676
1048.449 997.69269 2527.4036
1046.3921 996.90222 2520.6597
1044.9204 996.73834 2515.5225
1043.5413 996.93732 2511.3186
1041.2925 997.28235 2502.8247
1269.4048 1049.5535 3244.7
1266.2104 1048.6987 3234.6323
1263.1322 1047.745 3224.3059
1260.9878 1048.0695 3217.9512
1257.2635 1046.3203 3205.2732
1254.2153 1045.8549 3196.5762
1251.0792 1044.6024 3185.519
1248.8573 1044.8983 3179.2224
1246.0355 1044.1748 3169.8596
1243.1619 1043.2987 3160.0767
1240.7668 1043.2042 3152.7
1238.2278 1042.8046 3144.4355
1235.5121 1042.2592 3135.77
1232.5752 1041.4818 3126.4468
1229.9965 1041.1002 3118.3503
1227.7222 1040.8434 3110.6628
1225.34 1040.8312 3103.7388
1221.9738 1039.5544 3093.0828
1219.3623 1038.8831 3084.2712
1216.4958 1038.038 3074.9834
1213.047 1036.5812 3063.9285
1210.1548 1035.6075 3054.3472
1207.1155 1034.6715 3044.918
1204.9498 1034.4993 3037.7729
1202.0424 1033.8518 3029.2668
1199.2332 1033.0549 3020.3606
1196.8329 1032.561 3012.3767
1194.123 1031.9391 3004.0547
1191.7163 1031.446 2996.1431
1189.6414 1031.3286 2989.3542
1187.022 1030.7335 2981.2129
1183.8965 1029.1947 2970.3833
1181.9216 1029.1781 2963.9834
1178.7678 1027.9401 2954.1006
1176.9496 1028.0284 2948.0635
1174.552 1027.6453 2940.7031
1172.2484 1027.0945 2932.895
1170.3048 1027.2518 2927.1379
1167.0511 1025.8362 2916.9324
1164.8292 1025.3811 2909.4954
1161.7649 1024.1287 2899.8318
1159.8059 1024.0885 2893.6343
1158.051 1024.2206 2887.9485
1155.1233 1023.0576 2878.6423
1152.7301 1022.3176 2870.5625
1149.9017 1021.2845 2861.6951
1147.839 1021.218 2855.5674
1145.009 1020.1686 2846.7227
1143.3313 1020.2812 2841.1499
1141.1654 1020.0428 2834.6248
1139.3914 1020.0715 2828.8672
1136.7687 1019.0223 2820.1506
1134.4739 1018.4832 2812.8782
1132.1154 1017.7851 2805.1973
1129.88 1017.4726 2798.6086
1127.5953 1016.663 2790.6824
1125.5969 1016.4552 2784.4365
1123.2101 1015.8414 2777.1062
1120.816 1014.9957 2769.1731
1119.29 1015.1879 2764.0979
1115.8336 1013.1518 2752.9883
1114.4711 1013.5459 2748.5137
1112.5363 1013.3423 2742.4395
1110.1152 1012.5012 2734.6675
1108.0052 1012.0123 2727.8765
1105.5026 1010.9373 2719.5356
1102.9335 1009.8708 2711.251
1101.5148 1010.3051 2707.0205
1099.3154 1009.8285 2700.3708
1097.2941 1009.4476 2694.0032
1095.0798 1008.7427 2686.7976
1092.7804 1008.1139 2679.8228
1090.7915 1007.6723 2673.3721
1089.2087 1007.5154 2667.7007
1086.9319 1006.8704 2660.7615
1085.068 1006.733 2655.1885
1082.8035 1005.9044 2647.8176
1080.5107 1004.8602 2639.9092
1079.3062 1005.2519 2635.7964
1077.5588 1005.1635 2630.4434
1075.342 1004.5387 2623.71
1073.282 1003.8892 2616.9382
1071.2384 1003.4004 2610.6111
1069.2737 1002.7303 2603.8372
1067.2483 1002.046 2597.0527
1065.9652 1002.4412 2593.0869
1064.0007 1002.0372 2587.0725
1062.1193 1001.6359 2581.0881
1059.7996 1000.8813 2574.2183
1057.9856 1000.2833 2567.7764
1056.0173 999.62732 2561.2104
1053.8568 998.97699 2554.6838
1052.0051 998.74634 2549.2534
1050.4437 998.45941 2543.7
1048.1222 997.54242 2536.5654
1046.3644 997.29865 2531.1665
1045.3497 997.68201 2527.3765
1043.3871 997.13959 2521.2598
1041.5052 996.55829 2515.0679
1039.5477 995.78613 2508.4185
1037.526 995.30719 2502.5312
1036.8807 995.89648 2499.3467
1265.1117 1049.0835 3243.2468
1262.7837 1048.9298 3235.3447
1259.2294 1047.3113 3222.9712
1255.7782 1046.0594 3211.7795
1254.1232 1046.8678 3206.9504
1251.3376 1046.3928 3198.2205
1248.3219 1045.5093 3188.2842
1245.3842 1044.6525 3178.4744
1242.724 1044.1324 3169.7307
1239.9445 1043.535 3160.7925
1237.1958 1043.1427 3152.5139
1234.1046 1042.0687 3142.2168
1230.9248 1041.0507 3132.134
1228.4969 1040.8196 3124.459
1225.9628 1040.3667 3116.1533
1222.6586 1039.1687 3105.658
1220.7206 1039.2488 3099.02
1217.5328 1038.3119 3089.3857
1214.2797 1037.1827 3079.2229
1212.3373 1037.0267 3071.9878
1209.0236 1035.7952 3061.6052
1206.6967 1035.6987 3054.6162
1204.4978 1035.6511 3047.8013
1201.5699 1034.6735 3038.2847
1198.7792 1033.8586 3029.2869
1196.2061 1033.2717 3020.9944
1193.726 1032.9344 3013.4663
1191.2306 1032.2742 3005.0303
1188.5367 1031.5913 2996.5654
1185.7961 1030.7698 2987.7344
1183.4127 1030.0935 2979.3621
1181.0906 1029.8694 2972.3303
1178.6713 1029.3149 2964.3774
1174.8524 1027.4572 2952.7126
1173.2054 1027.7792 2947.3486
1171.6407 1028.1219 2942.0671
1168.4462 1026.4734 2931.1213
1166.6311 1026.7385 2925.6753
1164.1149 1026.4388 2918.646
1161.069 1024.9371 2908.2356
1158.6594 1024.415 2900.6428
1156.0049 1023.4949 2891.957
1154.366 1023.6833 2886.4333
1151.8182 1023.0283 2878.5598
1148.9064 1021.8246 2869.178
1147.4142 1022.3296 2864.6235
1144.8109 1021.4191 2856.1296
1142.1613 1020.4141 2847.4072
1140.6127 1020.8934 2842.8547
1137.5664 1019.3924 2832.8174
1135.7632 1019.3373 2826.8315
1133.7484 1019.1516 2820.5085
1131.0098 1017.7924 2810.9705
1128.7355 1017.4699 2804.3286
1126.8715 1017.4016 2798.4133
1124.8556 1017.1795 2792.0999
1122.0453 1015.8967 2782.9067
1119.8839 1015.5842 2776.4031
1118.123 1015.3574 2770.1599
1115.6261 1014.846 2763.167
1113.4496 1014.0229 2755.3555
1111.6794 1014.0759 2749.9509
1108.9111 1012.5878 2740.3972
1107.1678 1012.6226 2734.9954
1104.4214 1011.5443 2726.615
1102.3331 1011.056 2719.855
1099.9075 1010.1894 2712.1062
1097.4303 1009.145 2703.9121
1096.1831 1009.482 2699.4443
1093.7318 1008.7888 2692.2449
1091.9216 1008.7302 2686.7644
1089.9095 1008.0074 2679.5396
1087.3456 1007.1299 2671.9331
1085.8413 1007.2912 2667.1069
1083.6377 1006.6041 2660.0576
1081.6199 1006.0739 2653.45
1079.8041 1005.7527 2647.4182
1077.7921 1005.1121 2640.5708
1076.0083 1004.8224 2634.6704
1073.0918 1003.519 2626.1399
1071.8508 1003.696 2621.509
1069.8658 1003.3182 2615.45
1068.2112 1003.2299 2610.1675
1066.4037 1002.8842 2604.2368
1064.1085 1001.8692 2596.5945
1062.1809 1001.4825 2590.6067
1060.4084 1001.1699 2584.8335
1058.3405 1000.5518 2578.2947
1056.4111 999.96539 2571.8625
1055.4174 1000.5453 2568.449
1052.8815 999.62054 2561.1931
1051.0983 999.0788 2554.9443
1048.8687 998.3241 2548.1758
1047.3751 998.35065 2543.4229
1045.6359 997.7655 2537.1328
1043.6477 997.27185 2531.0984
1042.0403 997.25244 2526.2883
1040.4401 996.9632 2520.814
1038.528 996.31482 2514.4536
1036.8699 996.14996 2509.3352
1034.8472 995.50128 2503.0193
1260.8967 1048.892 3242.6548
1258.3975 1048.585 3234.2812
1255.5538 1047.8003 3224.4761
1252.7405 1047.2512 3215.4392
1249.5367 1046.3119 3205.2473
1247.1467 1046.29 3197.9065
1243.7491 1045.139 3187.1553
1241.4352 1044.9089 3179.2546
1238.0659 1043.7504 3168.5708
1235.0229 1042.9331 3158.9692
1232.406 1042.5199 3150.6318
1229.5989 1041.7535 3141.2666
1226.9503 1041.2623 3132.7708
1223.8608 1040.3511 3123.0525
1221.3531 1040.01 3115.085
1218.5601 1039.2416 3105.8757
1215.6035 1038.377 3096.4204
1213.3318 1038.2454 3089.1877
1210.7859 1037.7812 3081
1208.0345 1037.0477 3072.0498
1205.4902 1036.6079 3064.0076
1202.8129 1035.9026 3055.2173
1200.0774 1035.0333 3045.9829
1197.5608 1034.5378 3037.8865
1194.8046 1033.8424 3029.239
1191.9747 1033.0428 3020.3252
1189.8379 1032.8237 3013.1433
1187.093 1032.1517 3004.6741
1184.2864 1031.223 2995.4954
1181.855 1030.5626 2987.134
1178.9286 1029.5232 2977.7124
1176.9871 1029.6357 2971.6558
1174.3301 1028.973 2963.3926
1171.342 1027.8383 2953.8079
1169.3221 1027.5867 2946.7966
1167.124 1027.2869 2939.6772
1164.2715 1026.338 2930.7346
1162.1708 1026.1439 2923.9807
1159.8553 1025.8513 2916.9753
1156.6637 1024.3667 2906.6169
1154.5552 1023.9819 2899.4163
1151.7249 1022.7872 2889.9575
1149.7415 1022.7378 2883.7673
1147.9686 1022.8174 2877.9663
1145.0898 1021.5152 2868.3096
1143.2195 1021.7075 2862.8801
1141.1451 1021.4814 2856.3042
1139.1594 1021.3009 2849.8821
1136.7147 1020.5413 2841.874
1134.1295 1019.5414 2833.2314
1131.9661 1019.1295 2826.2549
1129.8353 1018.8116 2819.5674
1127.5035 1018.153 2811.9661
1125.2155 1017.6658 2804.8684
1122.7911 1016.8505 2796.8972
1120.7865 1016.6186 2790.5603
1118.8267 1016.2425 2783.8538
1116.2329 1015.4045 2775.9119
1114.0254 1014.7039 2768.377
1112.2032 1014.5983 2762.4927
1109.4196 1013.5225 2753.9956
1107.4016 1013.122 2747.364
1105.1088 1012.6293 2740.5098
1103.1195 1012.1488 2733.7161
1100.9155 1011.4541 2726.3718
1098.6685 1010.8984 2719.4309
1096.5427 1010.3021 2712.4089
1094.5668 1010.0318 2706.2881
1092.7556 1009.8082 2700.3167
1090.3867 1008.8885 2692.5112
1088.6659 1008.7115 2686.7146
1086.0018 1007.7169 2678.7673
1084.0985 1007.408 2672.6711
1082.3386 1007.1028 2666.6082
1080.2738 1006.5155 2659.8237
1078.3323 1006.1854 2653.7441
1076.8677 1006.3137 2648.8948
1074.1606 1004.8642 2639.9197
1072.3259 1004.5503 2633.9568
1070.5618 1004.4348 2628.5364
1068.5614 1003.9872 2622.2695
1066.3295 1003.2519 2615.2771
1064.4799 1002.9307 2609.3889
1062.2332 1002.1355 2602.2927
1060.4811 1001.7775 2596.3569
1058.8057 1001.6243 2590.9734
1057.0779 1001.2153 2584.9507
1055.0531 1000.6479 2578.5425
1053.2576 1000.3519 2572.8564
1051.6022 1000.2266 2567.6309
1049.6116 999.69427 2561.3821
1047.8622 999.31213 2555.541
1046.1033 998.97345 2549.833
1044.2028 998.46924 2543.7251
1042.3057 997.97986 2537.6777
1040.3518 997.39899 2531.4211
1038.791 997.28259 2526.3647
1037.0178 996.76416 2520.3105
1035.0375 996.2215 2514.218
1032.9962 995.51575 2507.7375
1031.3102 995.2027 2502.2686
1030.0962 995.31195 2497.8796
1256.3827 1049.1053 3243.3145
1253.0616 1047.929 3232.2581
1250.3654 1047.2656 3222.8308
1246.9624 1046.2469 3212.3552
1244.3282 1045.9766 3204.2205
1241.7295 1045.7793 3196.3452
1238.4181 1044.5627 3185.3977
1235.4467 1043.5985 3175.2673
1232.8823 1043.1318 3166.6934
1229.9679 1042.4573 3157.5281
1227.4159 1042.1088 3149.3892
1224.8571 1041.6968 3141.0952
1221.9382 1040.8197 3131.4395
1218.9799 1039.8545 3121.5618
1216.6559 1039.714 3114.1985
1214.5605 1039.7207 3107.3076
1211.736 1038.9578 3098.1523
1208.9497 1038.2416 3089.1765
1205.9475 1037.3038 3079.5828
1203.5823 1036.9323 3071.7078
1201.212 1036.6353 3064.0884
1198.8345 1036.2206 3056.1553
1195.572 1034.9449 3045.7231
1192.7286 1034.0448 3036.4387
1190.0256 1033.5546 3028.396
1187.475 1032.9282 3019.99
1184.8927 1032.2679 3011.522
1182.3005 1031.6929 3003.3381
1180.0442 1031.3794 2995.9495
1177.1183 1030.4484 2986.803
1174.4315 1029.6266 2978.0115
1171.8961 1028.9569 2969.6965
1169.3486 1028.3683 2961.6511
1166.985 1027.7574 2953.5757
1165.0094 1027.4285 2946.343
1162.8099 1027.2751 2939.6438
1159.6178 1025.91 2929.5129
1157.5031 1025.7029 2922.7244
1155.594 1025.7787 2916.7688
1152.4803 1024.3551 2906.584
1150.4242 1024.087 2899.7141
1148.4341 1023.9296 2893.1853
1146.2028 1023.4353 2885.7341
1144.4536 1023.6876 2880.4148
1141.1785 1021.879 2869.3308
1138.5236 1020.8392 2860.4475
1136.8625 1021.2091 2855.5427
1134.4878 1020.5321 2847.7368
1132.2244 1020.0067 2840.3853
1130.0913 1019.537 2833.2192
1127.1027 1018.3745 2824.1611
1124.949 1018.0243 2817.3884
1122.972 1017.6541 2810.5881
1120.8281 1017.3444 2803.9827
1118.5731 1016.6755 2796.416
1116.1567 1016.1167 2789.1826
1113.671 1015.2275 2781.0735
1111.8711 1015.1332 2775.1704
1109.6531 1014.4999 2767.8203
1107.3876 1013.7495 2760.1814
1105.6017 1013.5682 2754.1196
1102.9246 1012.5428 2745.7935
1101.0903 1012.5067 2740.178
1098.9427 1011.9222 2733.104
1096.7241 1011.243 2725.803
1094.4756 1010.5625 2718.5273
1092.5908 1010.3423 2712.5168
1090.9132 1010.2184 2706.7883
1088.6119 1009.4258 2699.2942
1086.3986 1008.7036 2692.0176
1084.0184 1007.9313 2684.6365
1081.7976 1007.3958 2677.9138
1080.3687 1007.4453 2672.7698
1078.9633 1007.4936 2667.6431
1076.245 1006.3112 2659.2837
1074.2743 1005.9704 2653.177
1071.8169 1005.1704 2645.8855
1069.9241 1004.6 2639.2256
1067.9624 1003.9804 2632.4626
1066.0632 1003.4902 2626.0645
1064.5138 1003.6304 2621.3376
1062.5765 1003.2775 2615.3438
1060.4725 1002.4757 2608.2051
1058.624 1002.0936 2602.1841
1056.7347 1001.6771 2596.0967
1055.0651 1001.6465 2591.031
1053.2006 1001.3481 2585.2932
1051.4529 1000.9412 2579.2981
1049.5438 1000.3063 2572.7393
1047.384 999.57288 2565.9526
1045.5889 999.14624 2559.978
1043.5864 998.7016 2553.9797
1041.7427 998.30145 2548.1179
1040.3374 998.03644 2542.6226
1037.858 997.09332 2535.4236
1036.647 997.479 2531.6243
1035.165 997.27539 2526.3464
1032.522 995.81183 2517.9026
1031.0981 996.04126 2513.7632
1029.0024 995.24268 2507.0496
1027.6475 995.38147 2502.718
1026.2457 995.02557 2497.1611
1025.9595 996.29572 2495.6978
1254.1298 1048.3811 3248.5327
1251.7375 1048.2667 3240.7219
1249.3463 1048.0044 3232.4905
1245.4497 1046.3776 3220.0979
1242.957 1046.1172 3211.957
1240.0596 1045.5305 3202.8538
1237.3434 1045.0292 3194.0527
1235.2688 1044.9897 3186.6997
1232.5193 1044.7814 3178.8665
1228.7413 1042.9944 3166.2756
1226.1044 1042.4641 3157.5483
1224.0486 1042.4912 3150.5449
1221.3577 1041.8656 3141.6042
1218.8748 1041.3074 3132.9065
1215.6466 1040.2048 3122.6135
1212.7019 1039.3823 3113.2048
1210.5093 1039.4196 3106.4077
1207.8488 1038.9916 3098.2529
1205.2247 1038.3081 3089.3745
1202.91 1038.0179 3081.7026
1200.3617 1037.5162 3073.4377
1197.3073 1036.5281 3063.7717
1195.1343 1036.1144 3055.842
1191.1705 1034.26 3043.7073
1188.9437 1033.9813 3036.2522
1186.3702 1033.3473 3027.7886
1183.5367 1032.7146 3019.3657
1181.5952 1032.9907 3013.6304
1178.3124 1031.3833 3002.4368
1175.3728 1030.1207 2992.2935
1173.4186 1030.0408 2985.6216
1170.5593 1029.1781 2976.7141
1168.2017 1028.6802 2968.8982
1166.2195 1028.6498 2962.4617
1162.9736 1027.2316 2952.0645
1160.6906 1026.6726 2944.1755
1158.5148 1026.3783 2937.0776
1155.9473 1025.6326 2928.7205
1153.7767 1025.2452 2921.4202
1152.0365 1025.6737 2916.4705
1149.2223 1024.5454 2907.124
1146.4178 1023.5712 2898.2534
1145.1565 1024.1814 2893.897
1142.7858 1023.6429 2886.3196
1139.9927 1022.7708 2877.835
1137.1501 1021.4708 2868.1848
1134.7867 1020.8309 2860.4241
1132.9005 1020.7585 2854.2825
1130.3685 1019.7733 2845.6191
1127.5635 1018.7222 2836.8086
1125.5219 1018.4775 2830.2749
1123.7289 1018.2791 2823.8965
1121.0284 1017.5024 2815.9441
1119.9802 1018.4059 2812.6648
1117.6042 1017.7986 2805.2344
1115.0273 1016.6457 2796.3342
1113.1399 1016.2648 2789.5891
1111.0719 1015.8015 2782.6458
1108.7007 1015.2345 2775.447
1106.8239 1014.9208 2768.9688
1104.3854 1014.0699 2761.054
1102.1975 1013.5159 2753.9778
1099.5471 1012.614 2745.9866
1097.9393 1012.562 2740.3274
1095.9314 1012.2571 2734.0085
1093.6212 1011.5295 2726.575
1091.7012 1011.0023 2719.7104
1088.917 1009.7923 2711.0403
1087.3563 1009.905 2705.9485
1084.9237 1009.0297 2698.2346
1082.2356 1007.787 2689.5715
1080.6917 1007.9518 2684.6912
1077.8284 1006.5709 2675.7212
1076.1243 1006.2192 2669.5171
1074.7448 1006.2936 2664.4656
1072.6141 1005.8795 2658.1431
1070.7953 1005.5412 2652.0452
1068.7212 1005.0333 2645.5244
1066.7329 1004.7105 2639.5159
1064.7045 1003.9773 2632.4543
1062.5896 1003.2543 2625.4473
1061.0283 1003.2758 2620.4114
1058.7217 1002.5132 2613.3516
1057.1261 1002.2249 2607.5525
1055.9199 1002.5893 2603.4709
1053.5194 1001.6122 2595.9285
1051.8794 1001.5745 2590.8445
1050.4421 1001.6449 2586.0596
1048.1412 1000.6645 2578.585
1045.8171 999.53625 2570.7588
1044.323 999.70941 2566.3032
1042.6732 999.50269 2560.8911
1041.163 999.42371 2555.8264
1038.6017 998.21857 2547.9062
1036.723 997.32001 2540.7974
1035.7649 998.03833 2537.8264
1033.1111 997.13092 2530.7407
1031.6646 996.58191 2524.5896
1029.8911 996.52209 2519.6985
1027.8643 995.66956 2512.825
1025.9814 994.85675 2506.0774
1024.0858 994.41309 2500.2832
1250.8724 1048.5684 3249.113
1247.7778 1047.795 3239.2637
1245.162 1047.3411 3230.4448
1242.9835 1047.3146 3222.9814
1239.1462 1045.6268 3210.4514
1236.8304 1045.5927 3203.0439
1234.2518 1045.4115 3195.2209
1230.8582 1044.0491 3183.8315
1228.3364 1043.5376 3175.082
1225.8206 1043.2081 3166.925
1223.0985 1042.6989 3158.2595
1220.3026 1041.9362 3148.8674
1217.6803 1041.3925 3140.1775
1215.4233 1041.385 3133.1399
1212.478 1040.5275 3123.582
1210.0729 1040.1367 3115.4644
1207.5569 1039.5659 3106.8452
1204.5956 1038.6573 3097.2563
1201.3798 1037.4086 3086.698
1198.3181 1036.6666 3077.6909
1195.693 1036.0271 3069.0266
1193.3961 1035.6455 3061.1628
1190.8333 1035.0847 3052.8052
1187.8727 1034.1093 3043.2637
1185.1404 1033.4227 3034.6118
1183.0011 1033.254 3027.5151
1180.4796 1032.5428 3018.8633
1177.4241 1031.6262 3009.6499
1174.8119 1030.7644 3000.6355
1172.7766 1030.8519 2994.4175
1170.0531 1029.8573 2985.0896
1167.6837 1029.3986 2977.3521
1165.4868 1029.0902 2970.0815
1162.9794 1028.3971 2961.7339
1159.778 1027.1851 2951.9309
1157.8118 1027.2151 2945.7312
1155.8645 1026.9855 2938.8149
1153.2623 1026.092 2930.0325
1151.139 1026.0376 2923.678
1148.3846 1025.2302 2915.2092
1145.4875 1023.8795 2905.2344
1144.3652 1024.6776 2901.3862
1141.0604 1023.0171 2890.6069
1138.7239 1022.3958 2882.803
1136.6525 1022.2481 2876.3643
1134.1714 1021.3339 2867.8005
1131.9897 1021.081 2861.125
1129.7173 1020.6514 2853.9832
1127.2194 1019.7414 2845.5303
1124.9144 1018.9064 2837.3215
1123.2126 1019.1782 2832.2222
1120.6045 1018.2896 2823.9258
1118.0696 1017.4019 2815.666
1116.1433 1017.1881 2809.3013
1114.1631 1016.9785 2802.9741
1111.8707 1016.2844 2795.3406
1110.0541 1016.1741 2789.3401
1107.6602 1015.3232 2781.3357
1105.2495 1014.5831 2773.6663
1103.4408 1014.5092 2767.8459
1100.9362 1013.7302 2760.1287
1099.1832 1013.5418 2754.0481
1096.4822 1012.4092 2745.4312
1094.4376 1012.0144 2738.8457
1093.1134 1012.2043 2733.866
1090.3888 1011.1488 2725.5488
1087.9969 1010.4139 2718.1277
1085.9724 1009.9497 2711.4629
1083.9237 1009.3194 2704.3794
1081.9591 1009.0787 2698.366
1079.6215 1008.322 2690.9993
1077.4402 1007.4047 2683.2339
1075.7664 1007.2743 2677.5908
1073.6647 1006.6859 2670.7551
1071.9111 1006.4616 2664.9104
1069.8927 1005.8809 2658.1467
1067.8644 1005.4985 2651.9326
1065.9324 1005.234 2646.053
1063.8311 1004.3101 2638.4639
1062.2595 1004.3112 2633.3301
1060.4972 1003.9208 2627.1914
1058.1624 1002.8855 2619.3921
1056.6366 1003.0882 2614.8503
1054.4194 1002.4257 2608.0752
1052.4269 1001.8441 2601.5359
1051.0177 1001.9178 2596.7207
1048.7963 1001.1523 2589.7527
1046.9258 1000.6655 2583.531
1044.9171 999.93243 2576.6987
1042.9138 999.43921 2570.5093
1041.4353 999.367 2565.4241
1039.6364 999.00739 2559.6221
1037.708 998.48401 2553.4233
1036.1034 998.33228 2548.1965
1033.8832 997.53876 2541.3545
1032.5186 997.5838 2536.6707
1030.7373 997.20587 2530.9309
1028.7482 996.5127 2524.4143
1027.6638 996.90649 2520.6704
1025.6996 996.22461 2514.2258
1023.5829 995.28772 2507.1631
1022.1066 995.20099 2502.2642
1019.1278 993.72882 2493.9067
1246.2731 1048.4904 3248.8711
1242.9545 1047.4432 3238.1763
1240.3751 1046.9215 3229.1504
1238.0662 1046.709 3221.1177
1234.8815 1045.7904 3210.9539
1232.1134 1045.2363 3201.9526
1229.5869 1044.9983 3193.9583
1226.4043 1044.0088 3183.7085
1223.7056 1043.3767 3174.5925
1221.719 1043.4249 3167.5828
1218.9504 1042.8898 3158.8381
1215.8759 1041.9703 3148.9709
1213.2297 1041.4276 3140.2837
1209.9493 1040.3535 3130.0366
1207.4136 1039.8699 3121.6079
1204.9384 1039.5078 3113.5806
1201.9774 1038.5228 3103.7275
1199.0986 1037.6857 3094.3591
1196.8159 1037.543 3087.0979
1194.0532 1036.7285 3077.8745
1191.2919 1035.8701 3068.5615
1188.9763 1035.5232 3060.8013
1186.4125 1035.0511 3052.7061
1183.8826 1034.5647 3044.6038
1181.2755 1033.8173 3035.7705
1178.5835 1032.9001 3026.4785
1175.8044 1031.8754 3016.9119
1173.6418 1031.8024 3010.1633
1171.1957 1031.3973 3002.478
1168.7308 1030.8186 2994.3206
1165.6681 1029.6328 2984.4392
1163.5198 1029.4948 2977.6301
1160.7014 1028.496 2968.3662
1158.7462 1028.4602 2961.9158
1155.4114 1026.8829 2951.0627
1153.2159 1026.4246 2943.4641
1151.1378 1026.1365 2936.3855
1148.0955 1024.8665 2926.5327
1145.889 1024.6705 2919.7825
1144.0289 1024.9078 2914.2925
1141.3241 1023.6323 2904.5332
1139.2933 1023.5157 2898.0962
1136.8098 1022.7754 2889.9238
1134.3201 1022.0157 2881.7314
1132.3224 1021.7797 2875.0466
1130.1423 1021.3168 2867.7522
1127.7511 1020.7354 2860.1565
1125.6201 1020.2985 2852.9963
1123.4272 1019.8427 2845.813
1121.2711 1019.4266 2838.7703
1119.2152 1019.1159 2832.0491
1116.6787 1018.1967 2823.668
1114.5847 1017.8029 2816.7759
1112.454 1017.4063 2809.9041
1110.1708 1016.8238 2802.5479
1107.9757 1016.3808 2795.6055
1105.9686 1016.1493 2789.272
1103.6436 1015.4247 2781.6135
1101.1526 1014.4389 2773.272
1099.1036 1013.9662 2766.3643
1097.0497 1013.5386 2759.6074
1094.7181 1012.8425 2752.1479
1092.5869 1012.3062 2745.1516
1090.2999 1011.5315 2737.5388
1088.3503 1011.2195 2731.2061
1086.2438 1010.7493 2724.4722
1084.3961 1010.5527 2718.5012
1082.4788 1010.0905 2711.8408
1080.1544 1009.2752 2704.261
1078.2673 1009.0016 2698.1597
1076.0562 1008.1952 2690.6609
1074.0259 1007.6307 2683.8359
1071.7472 1006.9629 2676.7632
1069.8175 1006.5667 2670.439
1068.2175 1006.3888 2664.7178
1065.7556 1005.5501 2657.2727
1064.0464 1005.4625 2651.8376
1062.0336 1004.9951 2645.4241
1060.0597 1004.2112 2638.2043
1058.3075 1003.8718 2632.1777
1056.5825 1003.7356 2626.7065
1054.4022 1002.9869 2619.657
1052.8918 1003.1709 2615.0659
1050.5541 1002.2905 2607.7234
1048.609 1001.5857 2600.865
1046.85 1001.412 2595.4097
1044.8665 1000.7858 2588.8044
1043.2155 1000.5876 2583.3298
1041.6073 1000.2939 2577.6301
1039.6233 999.68561 2571.1431
1038.1073 999.66278 2566.1836
1036.0996 999.02216 2559.6599
1034.0991 998.39417 2553.1936
1032.2189 997.83459 2546.9263
1030.7667 997.98132 2542.4819
1029.3427 997.8927 2537.4561
1027.1405 996.95264 2530.2883
1025.1998 996.33301 2523.959
1023.5219 996.10187 2518.636
1021.6237 995.58099 2512.6016
1020.0444 995.1485 2506.8123
1017.8636 994.32721 2500.0674
1016.8434 994.75262 2496.4761
1014.5306 993.7182 2489.2412
1241.425 1048.4259 3248.6716
1238.0448 1047.4918 3238.3264
1235.6836 1047.1621 3229.8926
1233.4469 1047.0656 3222.2148
1229.627 1045.4435 3209.8887
1226.4159 1044.4138 3199.4329
1224.3461 1044.5956 3192.7273
1221.6423 1044.0637 3183.876
1218.5364 1043.0988 3173.7468
1215.9193 1042.6176 3165.1321
1213.1836 1041.9615 3156.0264
1210.5574 1041.4099 3147.2769
1207.4922 1040.5842 3137.7407
1205.1635 1040.1898 3129.5444
1202.7191 1039.7155 3121.1445
1200.0807 1039.2295 3112.7473
1197.7395 1039.0006 3105.1555
1194.9307 1038.2247 3095.9663
1191.9435 1037.0459 3085.6189
1189.7411 1037.0061 3078.6987
1186.8339 1036.0304 3069.0364
1183.7703 1035.0366 3059.363
1181.4279 1034.5155 3051.1265
1179.0082 1034.1481 3043.3777
1175.7058 1032.6909 3032.4631
1173.636 1032.5941 3025.5815
1171.4927 1032.3164 3018.2014
1169.1448 1032.0531 3010.895
1165.835 1030.5215 2999.9282
1163.8 1030.4052 2993.1196
1161.2545 1029.8837 2985.166
1158.0223 1028.3065 2974.1934
1156.2728 1028.7136 2968.9949
1153.4146 1027.4952 2959.1365
1150.7461 1026.563 2950.1428
1148.9783 1026.7043 2944.2664
1146.339 1025.8856 2935.6675
1144.0685 1025.4908 2928.3157
1141.4222 1024.4995 2919.2952
1139.5641 1024.6224 2913.481
1137.1919 1023.9196 2905.3484
1134.6205 1023.0234 2896.7021
1132.4022 1022.6194 2889.4832
1129.9452 1021.8435 2881.2458
1127.8394 1021.7228 2874.8865
1125.8057 1021.4001 2867.9863
1123.5944 1020.95 2860.7578
1121.5575 1020.5709 2853.7581
1118.924 1019.5697 2845.0513
1116.7618 1019.1136 2837.8984
1114.2073 1018.425 2830.1292
1111.9777 1017.9301 2822.9287
1110.0725 1017.601 2816.2168
1108.0063 1017.2694 2809.5259
1105.1655 1016.249 2800.9636
1103.172 1015.702 2793.7385
1101.1128 1015.1516 2786.5332
1099.1462 1014.8882 2780.144
1097.0406 1014.4052 2773.1799
1094.9448 1014.0356 2766.5537
1092.8628 1013.5769 2759.7114
1090.3116 1012.3823 2750.8972
1088.3596 1012.1356 2744.6892
1086.6338 1011.9233 2738.5991
1084.5946 1011.4892 2731.9343
1082.3556 1010.9443 2724.9978
1080.3717 1010.5236 2718.4229
1078.1014 1009.7448 2710.9126
1076.1659 1009.3691 2704.5125
1074.1583 1008.9154 2697.9292
1071.7656 1007.8126 2689.6396
1069.6938 1007.3173 2683.001
1067.427 1006.6249 2675.8647
1065.7899 1006.5515 2670.3984
1063.8298 1006.002 2663.6934
1061.6359 1005.4302 2656.9558
1060.2218 1005.5745 2652.1331
1057.7495 1004.5059 2644.1362
1055.8916 1004.0117 2637.6799
1054.184 1003.7395 2631.8308
1052.1121 1003.1967 2625.2964
1050.2411 1002.839 2619.2705
1048.1442 1002.1425 2612.385
1046.5509 1002.0275 2607.0391
1044.5602 1001.1683 2599.781
1043.015 1001.2503 2594.9905
1041.3302 1001.1494 2589.7451
1039.0028 1000.1755 2582.2659
1037.2311 999.75262 2576.2354
1035.9365 999.96881 2571.8713
1033.7793 999.09705 2564.7312
1031.9535 998.64294 2558.6882
1030.3303 998.50555 2553.4783
1028.2246 997.64868 2546.4517
1026.6691 997.47632 2541.1956
1024.5206 996.8172 2534.7214
1023.1186 996.75757 2529.7932
1021.5369 996.5755 2524.5735
1019.2852 995.5451 2517.228
1018.197 996.00842 2513.6802
1016.0062 994.95251 2506.3188
1013.7269 993.92468 2499.0552
1013.1823 994.84979 2496.72
1012.6035 995.49066 2493.6814
1237.0205 1048.2675 3248.1807
1234.4944 1047.9215 3239.6545
1230.892 1046.5148 3227.896
1228.481 1046.2028 3219.5598
1224.974 1044.777 3207.842
1222.5209 1044.5304 3199.7903
1220.1842 1044.5691 3192.6465
1217.0476 1043.4415 3181.9785
1214.098 1042.5315 3172.0208
1211.7695 1042.3201 3164.2288
1209.1368 1041.8678 3155.7424
1206.3416 1041.0668 3146.24
1203.9269 1040.6581 3137.9631
1201.811 1040.7 3131.0791
1198.4525 1039.4301 3120.2876
1195.8306 1038.672 3111.0771
1194.1674 1039.3516 3106.2043
1190.4464 1037.7264 3094.4805
1188.354 1037.5895 3087.2361
1185.1971 1035.9855 3075.6687
1182.012 1035.0294 3066.0713
1179.8406 1034.7549 3058.5303
1176.9647 1033.9014 3049.3149
1174.4744 1033.6299 3041.8528
1172.5265 1033.5004 3034.8401
1169.6189 1032.5388 3025.4197
1166.889 1031.7441 3016.5283
1165.0883 1031.7457 3009.9983
1161.946 1030.6769 3000.3806
1159.1669 1029.6678 2990.9778
1156.8623 1029.1603 2983.0691
1154.8217 1028.9519 2976.0601
1152.3942 1028.4141 2968.1301
1149.7263 1027.6254 2959.5115
1146.9398 1026.3811 2949.6204
1145.411 1026.6864 2944.2151
1142.933 1026.0562 2936.1558
1140.1769 1025.1865 2927.447
1137.9366 1024.9324 2920.5286
1135.9421 1025.0308 2914.6421
1133.1534 1023.5973 2904.4336
1130.5289 1022.7203 2895.8438
1128.7422 1022.456 2889.0215
1125.6404 1021.0827 2879.1006
1124.3165 1021.7025 2874.8293
1121.8164 1020.9451 2866.7085
1118.8434 1019.7455 2857.3831
1117.0767 1019.6379 2851.1492
1114.9209 1019.3184 2844.3501
1112.8164 1019.0761 2837.7939
1110.8831 1018.5742 2830.5437
1108.5514 1017.9553 2822.9988
1106.424 1017.5387 2816.0444
1103.8213 1016.4789 2807.3425
1101.7126 1016.0538 2800.4255
1099.5387 1015.6432 2793.5767
1097.76 1015.4526 2787.3596
1095.5061 1014.8612 2780.0698
1093.4215 1014.4564 2773.3201
1091.0311 1013.6069 2765.384
1089.1566 1013.1782 2758.6257
1087.3646 1013.1593 2753.0088
1085.6035 1013.0282 2747.1096
1082.9805 1011.8384 2738.3691
1079.8676 1010.4078 2729.0134
1078.8127 1010.6593 2724.2295
1076.4995 1009.8527 2716.6177
1074.4144 1009.4744 2710.1868
1073.0511 1009.6844 2705.3574
1069.8175 1007.6545 2694.5576
1067.9216 1007.3737 2688.4683
1066.488 1007.5953 2683.7417
1063.7136 1006.1044 2674.481
1061.9481 1005.7358 2668.2346
1060.2251 1005.8169 2663.2034
1058.026 1005.145 2656.2019
1056.806 1005.4247 2651.738
1054.6387 1004.8571 2645.0608
1052.973 1004.7262 2639.5571
1051.0964 1004.0857 2632.7385
1048.5365 1002.7236 2624.0583
1047.1637 1003.173 2620.1431
1044.6942 1001.8085 2611.5144
1043.1675 1001.8369 2606.543
1041.399 1001.7896 2601.3945
1039.7222 1001.5221 2595.6948
1038.0129 1000.9955 2589.3472
1035.8129 1000.2094 2582.3535
1034.4899 1000.4861 2578.1255
1032.1947 999.20105 2569.8967
1030.371 999.08234 2564.6934
1028.3972 998.3974 2558.0593
1026.4514 997.67542 2551.3555
1024.6625 997.25818 2545.4551
1023.6475 997.77185 2541.9482
1021.5385 997.00342 2535.1948
1019.4789 996.17548 2528.3159
1017.9996 996.02142 2523.1697
1015.6291 995.03156 2515.9297
1014.4608 995.33905 2511.991
1012.3851 994.60205 2505.4358
1010.6065 994.03821 2499.3406
1008.7064 993.22931 2492.6531
1008.263 994.14355 2490.3069
1231.58 1047.0154 3244.3005
1228.6664 1046.2535 3234.4983
1226.2113 1045.8574 3225.8684
1223.4614 1045.2769 3216.7104
1220.8441 1044.8464 3208.0554
1218.3507 1044.4584 3199.5693
1215.7075 1044.0774 3191.1436
1213.2832 1043.7365 3182.8782
1210.7084 1043.3309 3174.4534
1207.8656 1042.5936 3165.0593
1205.1466 1041.9587 3156.0181
1202.6414 1041.5126 3147.5874
1199.7258 1040.6515 3137.9431
1196.9338 1039.9474 3128.8149
1194.5947 1039.5333 3120.5977
1191.6392 1038.7134 3111.2012
1189.037 1038.0284 3102.2502
1186.6866 1037.7594 3094.5789
1183.1699 1036.4576 3083.8687
1180.6498 1035.6558 3074.6899
1177.8987 1035.0112 3066.0173
1175.3011 1034.3392 3057.302
1173.2676 1034.332 3050.5852
1170.3235 1033.1774 3040.5212
1168.0066 1032.8335 3032.8818
1166.0939 1032.9999 3026.7705
1163.0522 1031.6019 3016.1125
1160.7634 1030.9705 3007.7363
1158.0908 1030.4319 2999.6672
1155.6833 1029.8895 2991.6218
1153.3015 1029.3624 2983.6555
1150.4188 1028.2771 2974.1084
1148.3596 1028.23 2967.5986
1145.6558 1027.1943 2958.27
1142.5537 1025.8857 2948.1968
1141.7245 1026.9042 2944.8394
1138.8695 1025.874 2935.6343
1135.827 1024.4807 2925.4314
1134.1604 1024.7209 2919.9263
1132.0587 1024.6914 2913.677
1129.1918 1023.1654 2903.2083
1126.3564 1022.1079 2894.1101
1124.2943 1021.921 2887.5098
1122.2548 1021.7091 2880.8667
1119.4387 1020.6148 2871.7688
1117.5299 1020.2444 2864.7412
1115.1362 1019.5953 2856.9619
1113.3586 1019.5722 2850.9653
1111.3818 1019.4983 2844.8521
1109.031 1018.7558 2836.9021
1106.6539 1017.9088 2828.6943
1104.351 1017.2054 2820.9189
1102.2747 1016.858 2814.1606
1100.4985 1016.7643 2808.1309
1098.699 1016.7119 2802.2393
1096.2158 1015.9785 2794.499
1094.0587 1015.3304 2787.0242
1091.7714 1014.7152 2779.6699
1089.7051 1014.3327 2772.9817
1087.485 1013.5393 2765.1997
1085.3855 1012.9981 2758.1355
1083.4612 1012.7297 2751.8416
1081.2175 1012.101 2744.5955
1079.1289 1011.5315 2737.5388
1076.8961 1011.024 2730.6782
1074.6749 1010.1114 2722.7527
1072.3214 1009.2379 2714.9639
1070.5079 1009.083 2709.136
