# .PCD v0.7 - Point Cloud Data file format
VERSION 0.7
FIELDS x y z
SIZE 4 4 4
TYPE F F F
COUNT 1 1 1
WIDTH 1580
HEIGHT 1
VIEWPOINT 0 0 0 1 0 0 0
POINTS 1580
DATA ascii
-428.73495 1429.5736 2911.469
609.17358 1451.9833 2359.5562
-505.92004 1469.7706 1395.6235
-1169.2977 1471.475 2630.5056
-1115.2584 1479.7706 2887.3643
-1138.6395 1431.8086 1990.6764
-543.7428 1423.4053 1266.837
-1112.0122 1437.1321 1822.5587
538.4187 1469.7706 2159.8333
580.87012 1421.9631 2078.0002
-1024.9442 1477.0479 2447.0674
-783.07623 1479.7706 1202.4319
-465.25259 1469.7706 1363.2089
48.964661 1475.6202 1293.3845
-1251.3236 1409.0966 2702.136
-188.97516 1469.9209 3061.3469
720.21191 1479.0436 1636.6877
-918.63483 1416.3834 1207.46
-1114.9265 1419.8345 1840.9581
452.15115 1423.4871 1841.2958
444.42218 1482.1472 2564.3667
412.36319 1470.0297 1762.3329
-537.47705 1465.2939 3008.9629
-987.47021 1479.7706 1332.1558
398.88736 1479.7706 2966.2664
428.74722 1456.1588 3038.4663
78.777496 1432.9456 2848.8435
765.30908 1470.4923 1424.8949
-922.90131 1448.7792 2561.8474
-259.25226 1423.1096 1319.9956
330.51654 1453.2322 1584.9897
-1020.1821 1479.7706 2914.3623
-1176.6357 1429.6626 2639.6929
-1112.9998 1469.7706 2342.4929
-1059.9072 1428.6093 1442.4408
-1001.6677 1437.1707 1906.6888
-1034.8774 1434.0989 2214.4829
-444.54184 1448.349 2907.9114
-305.69431 1471.7706 1253.5836
-1050.363 1465.7706 2048.7153
-840.37378 1459.9604 2671.7485
280.27039 1415.4707 3065.8904
705.23712 1479.7706 1666.3071
524.90814 1479.7706 2791.9534
-966.52557 1497.8362 1678.4685
490.59821 1452.9805 3119.0781
-1221.3759 1428.0001 2461.9141
-457.59558 1437.554 2949.0239
-1154.4202 1465.7898 2496.8613
-1192.6074 1479.7706 2910.1995
-515.51965 1474.8217 2929.1863
95.567993 1435.296 2840.1809
588.45032 1400.7006 2004.5709
-1045.6846 1409.5012 1403.7823
539.92932 1471.7706 2743.6572
-133.94003 1424.6727 2919.5339
123.151 1418.6234 2828.9304
-325.64777 1452.7576 1309.4796
-843.79407 1449.3311 1636.5647
446.79425 1415.7106 1350.8252
58.245544 1435.6558 2902.9683
492.05887 1489.4908 3150.1287
397.20978 1479.7706 1488.7141
572.85413 1479.7706 2505.4587
-801.74139 1470.7695 1588.1075
115.11853 1479.7706 3006.5249
-1063.6743 1471.7706 1745.6173
-464.38855 1473.6052 1210.0371
-261.60931 1476.9116 3053.9937
-1253.1218 1479.7706 2743.9629
-765.46802 1471.2205 1172.2212
654.83344 1410.0673 1611.0143
659.36774 1471.7706 1962.2395
-603.76184 1467.4818 2935.0293
-1058.7395 1471.7706 1636.5161
-406.87195 1479.7706 2992.3379
-984.24011 1496.8289 1764.191
548.93713 1479.9924 2265.636
480.43744 1494.8805 2500.533
-981.66107 1465.7706 1770.381
-1069.8374 1440.1268 1965.3943
-1153.7083 1479.7706 2857.9819
-1042.2631 1471.7706 1624.2609
-332.47916 1465.7706 1325.752
-612.68445 1471.0651 1251.0638
-1214.0725 1479.7706 2662.2202
-103.57774 1430.2443 1386.2205
-49.72641 1499.1729 1359.7727
-257.57422 1431.4944 3053.6016
461.05273 1479.7706 2981.9888
-91.284477 1479.3665 1388.8015
51.567749 1476.0468 1391.799
-1079.6792 1469.7706 2364.6624
-387.77451 1428.4777 1299.6396
99.628387 1492.3798 2838.0859
546.45911 1469.7706 2261.3279
530.86945 1464.6005 2368.1221
-625.16388 1451.6879 1417.8976
292.27002 1459.1665 3075.8906
648.70386 1456.7407 2161.1111
-800.47888 1412.3602 2712.7988
376.26736 1425.9958 3153.9922
555.17664 1433.5311 2291.3621
-1067.1097 1450.2891 1948.1724
-232.36432 1465.7706 1337.1534
-115.29138 1489.7371 2956.9077
-704.90106 1435.3922 2790.8799
-1172.7223 1458.787 2666.1233
541.5517 1451.9147 2300.6772
667.5979 1412.512 1530.4227
228.576 1444.2601 1316.2628
-1196.3324 1471.7706 2436.0493
447.70993 1404.5718 3167.0291
569.67853 1420.7157 2148.6611
534.14343 1468.7926 1365.493
625.06781 1479.7706 1964.3663
22.170609 1465.7706 1377.9724
-594.17834 1408.5813 1194.051
-235.9007 1417.0358 1323.6941
698.20789 1400.3125 1797.4158
-571.45886 1471.3632 1391.2355
673.10339 1440.7666 2007.0587
499.74704 1471.4406 2681.864
493.39154 1471.7706 2914.4851
-48.767548 1428.6344 3021.8757
-979.74396 1479.7706 1234.5657
22.757858 1425.3706 1364.6616
-375.70093 1471.7706 3017.3306
468.42029 1452.2318 2839.1199
-1136.1133 1410.99 1974.7267
-545.95685 1436.9805 2935.0288
-993.3877 1422.885 1533.8494
427.73065 1480.2888 2777.269
-1253.7429 1415.4364 2912.0237
510.05316 1401.1606 2499.551
-1182.1398 1450.8911 2725.5835
284.25806 1440.1508 1537.6226
469.60275 1465.7706 2537.5122
-1033.833 1485.0712 2252.4307
469.88623 1471.7706 2889.6321
-656.9021 1404.4219 1481.8126
285.96631 1446.9603 1333.4523
-1026.7262 1435.2216 1744.3402
-73.219391 1460.1531 2903.926
-38.888275 1413.8591 3015.3406
467.25269 1480.6493 2527.2161
-988.24695 1464.7115 2439.7417
-1036.0649 1424.5004 2100.7837
-1032.4469 1420.8584 1806.0293
-940.58533 1479.3828 2886.2468
-156.74124 1437.9349 2922.7966
-683.64258 1479.754 2929.3152
-51.322968 1488.8995 1401.948
-708.00415 1479.7706 2955.1685
-1047.4449 1465.7706 2373.1184
378.18466 1478.349 3152.4709
543.24255 1457.6035 1447.0983
-466.71274 1469.7706 2930.3174
-1072.1178 1484.5416 1519.5356
493.82053 1471.7706 3027.2158
148.82416 1471.7706 3085.2229
361.22125 1436.2239 1418.2689
-549.50391 1471.7706 2985.8408
324.25854 1488.0494 2721.3723
-48.90419 1471.7706 1310.2419
498.39917 1479.7706 2936.8037
-500.45245 1469.7706 1369.6562
-368.34244 1471.4758 1380.5986
631.40234 1431.2592 1758.9524
-705.77209 1406.4071 1168.2766
-1255.3865 1475.1631 2708.8894
505.41476 1415.5472 2294.9834
-1004.8864 1479.7706 1322.6952
-1184.6973 1471.7706 2496.0244
-485.21124 1416.9612 3017.5474
-865.14508 1420.12 1595.9187
563.58569 1420.1812 2161.5603
318.98019 1497.6543 2729.679
-901.66382 1479.7706 1248.4479
333.22195 1432.4175 1587.8878
-988.63843 1471.2007 1419.8989
265.63995 1490.8234 2775.7888
-100.06056 1423.6631 1337.1094
449.97375 1438.0237 1424.2263
471.80905 1409.1608 1786.5425
-1046.9019 1440.0297 1871.7247
-992.3454 1438.2443 2864.3279
-794.47906 1418.8922 1235.224
682.98083 1441.063 1893.5552
272.90466 1474.3461 2769.6455
-1062.1851 1479.7706 2669.4954
-1071.7885 1473.453 2269.8218
177.50703 1428.5258 1381.0718
398.3226 1469.9749 3102.7107
565.95911 1473.9626 2196.7119
732.53619 1437.9321 1396.0823
-1169.7026 1471.7706 2381.2891
-641.93372 1438.8442 2827.0315
-435.41272 1462.0671 1283.9949
646.31744 1431.073 1715.9214
-488.54327 1425.4955 2895.7656
635.55292 1402.0117 1453.6191
-662.50397 1403.0798 2818.3733
-1018.1235 1414.9913 1715.5951
584.90808 1478.9039 2122.1301
-1078.7529 1469.7706 2196.8733
308.89639 1456.4886 3151.4216
-1039.6519 1479.7706 2728.9478
-1043.1256 1465.7706 2304.5811
-1008.2992 1479.7167 2360.9668
-954.05933 1431.5896 1285.5399
465.56866 1457.9713 2425.8342
443.84424 1495.4459 2765.562
486.47934 1456.9761 2648.3904
-356.58597 1445.9901 2920.8208
-1102.8879 1433.1678 2225.2063
99.748306 1410.9323 1458.3024
645.84564 1471.7706 1829.9076
-778.40942 1459.9346 2861.3601
97.885254 1456.5865 2838.9851
346.60056 1479.7706 1427.4397
-670.37677 1409.37 2988.2202
-1158.5698 1415.4902 2525.6289
492.44974 1497.0898 1948.1759
-269.21808 1469.1552 2929.9263
-11.611328 1469.7706 2893.9211
-83.37001 1495.9489 1320.9733
-387.85315 1471.7428 1234.6884
-84.792992 1464.4839 1339.3839
-1234.3762 1471.7706 2667.4414
-945.4054 1442.3236 1640.6049
-899.2002 1469.7706 1697.634
100.63879 1483.2659 1458.7626
-1056.9318 1496.2148 1954.1936
-714.73444 1429.3607 1247.8544
-1152.614 1471.7706 2334.6074
-331.55106 1415.0941 2968.9873
-1205.9556 1479.7706 2888.8984
589.71948 1456.2454 2073.2671
413.51016 1453.9464 3167.9907
-786.49011 1434.2836 1520.9991
-1119.0425 1471.7706 2160.2749
513.07422 1479.7706 3009.7666
577.66888 1469.7706 1993.1974
475.94281 1495.3545 2396.3633
-477.55371 1459.599 1277.3203
-1104.8933 1463.7861 2263.4375
357.44037 1422.2445 1614.5801
206.04843 1479.7706 3062.9397
-729.07825 1449.7677 1237.4828
294.97055 1421.7979 2696.9709
699.26636 1450.0253 1390.8129
488.92273 1412.2523 2709.6726
522.95935 1465.7706 1900.2374
-918.18542 1465.1638 1186.89
505.10059 1437.9808 2020.2719
672.44409 1479.7706 1667.3494
-910.20404 1499.4132 1135.8978
-490.60751 1479.4313 3010.7625
138.90469 1454.3527 2865.7161
-1039.0024 1496.5647 2099.6101
-545.50305 1466.8925 2872.6938
646.0719 1434.9628 1455.2852
-802.45386 1455.4758 2710.9387
-529.53131 1445.4658 1315.5754
588.39417 1471.7706 2196.2488
-442.12524 1469.7706 1360.7234
668.26099 1479.7706 1646.0994
-938.15405 1489.6989 2611.6523
-1046.04 1438.6667 1815.1438
544.47461 1481.1124 2819.1885
-909.61072 1420.0427 2950.3291
-2.5680695 1479.7706 1321.077
123.10379 1424.6108 1384.6047
507.35303 1413.3203 2593.3083
-216.3647 1447.6432 1326.7883
-558.88312 1415.692 3005.8789
-342.44531 1476.7374 2973.9844
159.56885 1465.7706 1468.58
-812.1842 1450.2107 1232.4198
566.80884 1464.9917 2168.0159
-272.56503 1406.55 1236.8899
445.2822 1465.7706 2564.0144
75.356171 1422.203 2895.5837
-1002.0496 1476.0884 1917.4608
-1027.7961 1479.2446 2871.55
-1079.5836 1465.7706 2254.7178
-1023.0515 1404.2732 1721.1395
-1133.5314 1455.6727 1958.4247
-353.52972 1413.2762 1224.0664
509.2464 1439.0811 2990.4714
359.86206 1434.7278 1682.694
-1186.683 1440.2731 2294.0112
-236.76289 1493.7313 2969.5488
-850.19629 1479.7706 1421.0865
-1243.251 1446.8866 2810.7175
699.24738 1429.2156 1841.9919
425.65717 1402.8274 1428.4746
-1177.9508 1441.3564 2699.135
737.69281 1454.5671 1599.2571
-126.76756 1443.9158 1345.0291
-1151.5421 1412.1903 2481.2576
358.70447 1479.7706 3149.9001
-398.86737 1466.8092 3030.6111
520.47217 1435.7527 2459.3376
-1255.3997 1434.8848 2727.8708
411.78845 1435.8513 2544.5828
539.89014 1445.2572 1871.8027
490.21216 1424.0309 3167.4832
-30.618225 1471.7706 3043.7222
255.11636 1455.7252 3134.8037
555.34058 1485.382 2203.6646
252.48837 1462.353 1466.4905
623.13843 1428.7533 2322.5249
-710.88348 1479.7706 2946.0366
461.24283 1479.7706 1382.2893
-657.74762 1449.4363 1478.8275
-552.30286 1471.7307 1271.2323
-522.26782 1454.1995 3019.7781
550.45062 1436.219 2270.0613
-647.94141 1460.4672 2999.8733
5.3700867 1417.8708 3001.1643
-944.11017 1424.4158 2525.6829
438.36337 1458.1759 1810.937
-738.12048 1469.7706 2776.8381
436.72076 1417.0637 1422.1272
-1049.3463 1469.7706 2050.7188
-1021.5027 1469.7706 1885.2457
-278.24597 1448.6588 2929.6279
-1032.4211 1446.8572 2238.8457
-958.02625 1417.4543 1310.5859
-672.00159 1469.7706 2908.5342
410.20483 1478.8521 2621.2842
-1229.583 1471.7706 2663.1877
326.1015 1430.585 1577.3304
429.39288 1484.4912 2776.0613
-1164.0098 1479.7706 2898.5598
-495.52692 1473.5454 2946.4851
-1172.2694 1471.7706 2530.77
-644.28406 1452.5751 2919.4553
-1204.4622 1498.3187 2911.729
-664.50073 1469.7706 2830.6445
277.17212 1440.9047 1585.4618
-1052.3958 1469.7706 2231.2241
-1049.5125 1498.4067 1926.3578
621.13647 1479.7706 1942.1345
-674.43878 1479.7706 1234.4371
108.84053 1470.7316 1418.1951
-1072.7743 1471.7706 1899.7374
-900.85352 1443.4996 1218.376
-664.42523 1405.3964 1438.7521
-1112.7347 1460.3538 1827.1204
690.77209 1479.7706 1701.476
-1026.652 1450.4706 1283.6147
175.71579 1479.7706 1327.4479
493.2276 1479.7706 1458.8624
499.70819 1424.3562 3101.8328
-774.67371 1466.986 2837.7734
518.62128 1400.2373 2121.1433
-107.05032 1459.8716 3085.542
-482.547 1448.3529 1276.5295
-40.393814 1479.7706 1308.2183
309.06003 1499.4008 2682.5266
-774.34326 1494.0645 1567.23
478.65466 1407.8855 2723.3633
597.61469 1471.7706 2316.4707
-715.32776 1464.3474 2779.908
486.62216 1464.1542 2724.6858
-1121.7737 1469.2906 2344.4465
-1130.2262 1470.535 1897.3517
-1157.5613 1479.7706 2729.6221
-1109.8628 1469.0146 2916.5193
-679.91663 1401.0538 2994.8091
253.45377 1471.4391 3063.8413
512.24658 1448.7529 2252.4277
695.70728 1431.1992 1813.204
-1086.6106 1479.7706 1891.9623
-217.42256 1412.4166 1330.6707
-1104.4573 1471.2927 2148.1929
19.067047 1434.5946 3024.5198
-72.145775 1428.3414 1276.7329
-1258.78 1462.5641 2749.2136
-1030.4459 1479.7706 1413.5857
-1022.5701 1450.7601 2867.6406
-406.16547 1474.8348 1345.1428
-937.06177 1401.5818 2613.2361
7.8544922 1479.2777 1294.353
638.63403 1479.7706 1400.7814
-974.29816 1479.0165 1125.7463
-544.33502 1464.2131 1409.0426
-321.32333 1453.3722 1310.1646
-953.72961 1470.3901 1223.8718
528.11255 1479.1547 2845.0737
-1066.8938 1473.4124 2000.0211
482.72418 1455.0837 1808.9404
-1017.3075 1435.7223 1684.873
525.76508 1498.4795 1572.4078
-871.02252 1499.4709 2635.3813
-302.06635 1444.9004 1232.2174
-52.543365 1438.7422 3013.1777
187.45621 1479.7706 3037.6113
-982.87183 1432.4658 1130.7668
130.55119 1479.6049 1366.5942
-318.62979 1462.7683 1310.5912
38.052811 1465.7706 1398.1172
-596.80573 1465.0624 1193.895
-1023.2955 1416.5789 2312.9919
496.6897 1464.5933 3120.8909
-1047.912 1412.5385 1903.6719
-703.75647 1464.692 2788.1851
572.08301 1424.7223 2593.7368
-1007.3507 1407.1461 1935.6382
-8.9362488 1469.7706 2938.697
-709.48328 1469.7706 2841.2046
253.23441 1418.0809 1513.7346
518.57935 1497.259 2118.7371
-1194.7139 1410.429 2892.5488
-1169.6465 1470.2091 2145.1797
598.38965 1479.7706 2122.2271
-1011.6078 1449.9235 1177.7627
-968.91235 1449.1036 1830.6992
-474.88467 1471.7706 1243.2456
623.66919 1471.7659 2217.0439
196.98633 1478.6335 3123.2065
562.84967 1411.6392 2191.7769
-989.633 1495.6738 1715.0752
-668.63782 1499.9469 2814.5618
216.19702 1436.8193 2814.4172
570.56116 1402.3077 1451.4252
-1201.5427 1438.755 2796.9492
-922.61475 1487.8704 2556.9636
737.14966 1409.7866 1551.5468
-1128.5807 1446.0513 2923.7476
-307.25357 1411.0662 2972.8357
-977.74414 1404.5604 1435.0801
-198.51074 1445.5538 2927.3088
-367.69049 1430.1029 3044.2607
91.825592 1420.9421 1379.6508
241.75842 1479.7706 2935.2329
316.50916 1469.6443 3141.8267
-538.60931 1465.7706 1373.025
-1026.6738 1428.3198 2279.2859
-0.54864502 1465.7706 1391.0032
190.79782 1479.7706 3006.1824
-876.35364 1420.0665 1149.3589
-1036.365 1464.9724 2067.6267
-613.08374 1496.1681 1278.4623
-1075.2649 1468.1874 2046.3297
-520.76367 1438.1272 2934.9692
-292.1131 1467.8981 2984.6711
-989.49359 1479.7706 1356.9254
507.81427 1434.7592 2281.9465
-1072.8608 1469.7706 2170.512
-391.37079 1466.7238 2918.769
559.15936 1402.7257 2726.4729
245.02863 1479.7706 3112.8115
-216.68387 1472.8275 1374.2498
-1069.4514 1496.4297 2272.3755
-950.95471 1467.9852 2951.2051
-535.21844 1471.7706 1225.5736
-669.03448 1476.4834 1488.9158
-672.47546 1413.5604 2808.8435
536.91833 1466.9945 2863.6328
-794.45953 1479.7034 1219.4569
-312.4216 1468.912 1374.9419
-93.918755 1425.4878 1338.0822
-872.41577 1414.6279 1666.2747
-808.7627 1416.446 2759.6958
-162.47092 1469.7706 1358.0901
464.08704 1440.4019 1770.8931
632.01343 1479.7706 1437.1641
-1240.0125 1479.7706 2806.7803
565.54559 1469.5885 2678.3003
-372.19672 1426.5796 1302.1069
370.88049 1494.4862 1338.8016
-554.58295 1414.0112 2872.4277
-809.59326 1408.7189 2699.6477
-765.22211 1469.7706 2884.0681
-613.96545 1498.5356 2841.866
-709.901 1479.7706 1231.8925
-715.83411 1469.7706 2829.5903
-705.62402 1471.9641 2838.7969
-1198.9709 1479.7706 2613.627
12.870758 1451.3601 3096.4358
450.17706 1492.2458 1576.6167
-699.11798 1476.6383 2917.3711
-1236.4044 1479.7706 2679.6584
-544.29395 1403.2743 1408.7832
671.59558 1471.7706 1816.4144
683.07434 1441.4521 1892.965
-225.23549 1446.627 1317.2836
631.28741 1426.9282 1380.0461
-1061.2692 1423.0803 2926.3088
513.09283 1428.3583 2246.061
-1084.5294 1432.418 2134.8655
250.79663 1466.9867 1477.1718
639.86017 1439.0769 1705.5515
487.12839 1494.354 1819.1454
-638.7998 1448.2456 2920.324
742.63953 1448.3269 1389.5828
656.16992 1423.7286 2062.833
-228.50523 1468.179 1244.5752
-475.77441 1465.7706 1294.2473
25.789948 1420.4496 3106.582
-651.49829 1405.9509 1249.7703
-636.1427 1414.9244 3001.7422
166.75575 1438.1342 1379.3689
-800.09436 1463.4636 2713.1611
702.05157 1474.4061 1796.8848
-89.832809 1443.5167 1338.7292
-1021.8286 1465.7706 2412.5442
-1009.3286 1456.2145 1163.3726
-656.14709 1467.6152 2818.5674
-1010.9285 1426.8025 2351.5986
159.15762 1471.7706 3064.2175
-970.73883 1479.7706 1414.7137
-839.99915 1488.3713 1147.0172
516.01233 1444.8495 1872.0707
520.47766 1471.7706 2765.739
-1010.0287 1412.9149 1638.9165
-990.49426 1465.7706 1787.0453
442.24689 1407.0685 1728.1686
-450.58371 1471.7706 2973.2002
491.56027 1470.2697 2716.0559
-921.78387 1479.7706 1230.2859
-1186.9395 1450.5294 2843.4626
85.403503 1412.1333 1378.6337
173.71553 1469.7706 1406.1095
602.41644 1449.5774 1941.9622
-957.74683 1479.7706 1498.6265
-931.60803 1497.1594 2668.5229
-1022.2198 1479.7706 1425.8251
95.917191 1415.6691 1303.3514
484.52048 1411.2545 3146.1067
-762.60095 1408.4155 2787.1189
690.90918 1427.1669 1484.3571
146.17354 1471.7706 1328.3313
409.77838 1467.9436 1757.8906
-1122.9033 1461.4174 1840.1825
-801.37561 1459.3936 1226.032
-773.72833 1445.1857 2857.3745
-1079.6704 1424.2485 2104.187
219.93452 1439.132 1387.7916
375.3718 1458.9634 1632.6885
596.67944 1466.8783 2486.4338
-951.76331 1453.8844 2951.7527
518.26221 1458.3824 2473.2913
-1184.2737 1465.7104 2866.905
511.12643 1490.0643 2260.8545
480.4726 1479.7706 1392.6354
554.3783 1469.7706 2057.8975
-1007.791 1405.9648 2374.3264
481.45865 1468.1512 2389.5112
-1078.1628 1465.7706 2167.124
-1000.9374 1462.391 1530.3772
-622.71948 1455.0742 1414.4696
-1027.8909 1447.3184 1700.5544
238.35266 1479.7706 3033.4651
-558.04718 1476.1575 2867.6094
1.1855774 1438.8157 2884.4258
-464.11505 1432.9739 1397.0134
-747.3606 1493.1362 2755.49
517.87183 1469.7706 2263.6335
-109.94214 1404.5311 2915.0171
10.663635 1448.9705 3023.189
-864.72119 1479.7706 1425.1107
243.32037 1479.7706 2953.8088
235.52153 1435.9231 1552.4313
-165.42053 1479.7706 1305.1046
-1075.5552 1468.2102 1602.1571
189.81796 1461.0917 3132.5613
247.66141 1455.9672 2793.1624
-486.87015 1406.0258 1287.9944
553.39294 1479.7706 1423.8384
-1095.5659 1452.8586 2928.9766
537.70337 1478.7666 2336.4976
-1264.2454 1422.4026 2732.5815
-1026.2477 1446.4711 1766.8887
-881.01489 1489.3397 1616.9822
-1069.7639 1479.7706 1636.6136
-1049.8164 1443.3792 1838.9866
-1017.9948 1443.3481 1144.5991
-702.41553 1479.7706 1270.2188
-673.53705 1484.158 1322.3844
-1019.8348 1405.9922 1189.434
711.57629 1409.1119 1764.1504
-73.540054 1428.9175 1349.4095
-772.93964 1427.5281 2826.8252
500.91437 1478.4055 3089.9358
466.8533 1423.6434 1869.5978
586.16785 1479.4746 2134.884
-971.05469 1439.8719 2471.7566
-211.51648 1493.0394 1371.7645
-809.93359 1479.7706 2932.9802
-1231.4816 1401.7487 2576.8582
-428.92224 1415.9099 2908.395
21.274414 1456.9109 2900.7483
369.0914 1479.7706 1339.7201
-1022.9464 1494.8802 2521.4458
430.69327 1445.0233 2504.0286
517.59509 1451.4479 2477.5032
672.47675 1403.6486 1412.0422
494.32434 1416.5697 2675.5681
100.2594 1401.5077 3045.4792
387.53931 1483.5048 1341.4402
-429.13742 1465.7706 2939.1724
-1038.0367 1457.8575 1815.7523
518.37329 1407.5809 2182.1262
243.65492 1434.7814 1496.6929
557.4953 1438.3311 2225.583
-830.14075 1498.2445 1521.808
91.545746 1494.2538 3116.9966
-739.95251 1497.0184 1534.6315
592.49084 1428.5817 2004.6295
-656.58752 1404.6185 1176.0668
649.77509 1470.1677 2144.6091
-962.8269 1401.4939 1222.431
-219.405 1471.7706 3040.6292
661.24658 1471.7706 1965.3519
237.97122 1432.7592 1402.798
573.19885 1471.5402 2542.9561
121.60016 1465.7706 1455.5549
-371.26178 1487.076 2960.259
-1167.9646 1478.9794 2906.3325
-704.5304 1429.524 1241.3707
6.6001282 1470.0198 3033.915
-1129.7738 1453.2009 2394.9575
206.7372 1474.6141 1389.2502
-444.02625 1457.7649 3032.1704
98.746002 1498.6824 3016.2905
125.58261 1409.2571 1380.9475
2.5955658 1456.0679 1353.3685
-842.95544 1471.7706 1176.8866
-49.523956 1479.7706 1317.3397
-662.47998 1497.5258 1485.0582
-261.74872 1402.2458 1373.0896
-1031.6301 1436.3829 1800.8723
494.11588 1408.7697 3080.2566
-930.37329 1468.0488 1750.4072
367.31113 1471.7706 1367.8622
544.62061 1440.0315 2818.2671
557.92468 1407.0487 1874.6591
530.41052 1451.5068 1436.9662
-1045.1212 1463.9032 1860.3478
371.81042 1436.1926 1338.949
510.71805 1479.7706 1446.3007
-1113.5692 1465.4927 1782.9927
635.33069 1452.8893 2245.5464
467.30457 1401.052 2421.2231
-390.79285 1473.4893 2963.0164
-646.99091 1480.1736 2824.02
293.29922 1490.074 2991.1709
-151.4706 1401.7683 1337.0665
-494.39059 1465.7706 1379.9897
-70.973602 1497.4807 2906.2966
-509.24414 1432.3989 1207.5033
189.7473 1458.9882 1310.113
-170.66312 1465.7706 2930.9397
-1087.5454 1469.7706 2289.563
-489.43167 1471.7706 2979.4241
562.35077 1465.7706 2002.2673
-812.18579 1405.8972 2701.5105
-874.59619 1418.3738 1606.6602
677.60297 1421.6249 1518.3927
-1015.8177 1420.3508 2469.2092
-1085.2031 1469.7706 2208.9438
-618.49011 1465.7706 2909.6306
377.4346 1441.3013 3162.2769
-1081.7125 1439.3483 2091.5105
542.67139 1478.1752 1986.2241
544.4903 1469.7706 2179.4504
-379.84656 1436.7855 3034.2356
451.19559 1448.3995 2461.1274
-466.3808 1469.7706 1287.8674
394.89835 1414.5763 2566.8049
204.31824 1465.7706 1468.2916
-507.17706 1479.6448 1215.1263
511.58026 1491.8372 2041.1636
-372.15039 1426.2012 2970.657
-1030.7217 1469.7706 2376.9932
-1083.6119 1479.7706 2600.3545
-977.61548 1471.7706 1284.5233
-429.59448 1440.7324 1212.0189
712.3194 1479.7706 1582.979
-1235.9771 1470.7865 2565.8557
192.39764 1479.7706 3071.7329
-394.28278 1490.3899 1384.7925
497.01532 1465.7706 2562.4043
-169.1066 1411.5044 2994.7161
372.08841 1479.7706 3075.3113
558.13831 1472.7766 2110.926
-813.10315 1423.7086 1599.5831
558.49451 1476.3848 2183.7041
-688.61951 1469.7706 2903.6682
652.26825 1461.0222 1678.3497
400.25696 1479.7706 2869.2698
490.03394 1403.4482 1950.5298
-1084.5623 1469.5011 2042.6797
-386.19525 1490.7643 2960.2659
497.9241 1462.6205 1839.1143
495.01883 1423.1036 2620.0439
-290.5896 1471.7706 2996.2708
-962.53076 1434.9358 2941.9475
-491.51669 1471.5936 2958.95
-1145.7229 1445.9866 2848.135
-12.268692 1465.7706 1374.0094
150.58453 1475.8556 3120.5398
-762.40576 1422.489 2746.9661
683.07275 1462.5139 1944.1146
205.59958 1429.9436 3126.9612
248.81004 1472.1512 1559.7299
-21.108582 1465.7706 1386.4121
681.79089 1479.7706 1697.0043
-1017.7455 1465.7706 1747.5516
624.9035 1479.7706 1405.9714
424.15308 1469.7706 2654.3333
-115.95062 1451.9562 3003.135
-195.89095 1403.5795 1249.0339
467.71948 1469.7706 2429.2805
-532.23328 1432.9926 1307.0651
-1053.5643 1448.2466 1402.3932
518.54382 1403.1028 2176.8662
-1113.9608 1471.7706 2053.6123
-461.06573 1478.078 1216.4207
-819.22192 1455.3691 1549.8898
-911.73041 1479.7706 1246.7355
-1142.2537 1479.7706 2355.917
-16.298828 1495.3837 1367.3011
-1026.6165 1497.2981 2003.3359
-1192.9624 1447.9631 2333.658
380.85825 1466.7432 2660.5137
621.87439 1479.7706 1503.1388
-471.66055 1421.4135 1286.3534
-1020.5161 1442.8199 1244.8745
622.00299 1479.7706 1646.2816
453.3869 1465.7706 2569.4365
608.86414 1431.9965 1901.2528
443.35898 1469.7706 2644.0481
384.30487 1479.7706 2921.3914
-1011.2776 1431.3496 1595.6626
198.5435 1418.2285 1384.4037
708.33032 1460.0389 1784.6444
-727.59229 1465.7706 2880.3489
62.880737 1417.1382 1375.0664
-55.120392 1440.4205 3093.7671
-1170.8685 1469.2363 2589.1174
515.37 1414.2565 2465.9817
-1049.9841 1479.7706 1761.729
732.64838 1435.8132 1396.1001
-256.40942 1471.7706 3039.8303
-1149.887 1452.8184 2470.8071
-110.30015 1408.7552 1270.6898
-942.63562 1404.059 1771.2842
-797.24365 1498.8269 1530.0928
-994.44128 1409.9369 1540.5013
617.67773 1458.1056 1896.7458
21.196777 1452.6779 3105.8545
-958.98859 1479.7706 1300.5493
-603.57019 1425.1465 2847.1802
-975.34039 1469.7706 1835.6342
530.05933 1469.7706 2225.2332
-995.29932 1479.7706 1228.844
-1018.4429 1478.7164 2870.8494
519.13867 1408.9242 2467.7571
-1170.9506 1473.4905 2633.3875
-662.12354 1458.8937 2997.6272
421.4328 1474.9011 2528.1631
524.79053 1402.3612 2432.0728
-675.55768 1464.9634 1442.6406
89.576935 1429.4402 2843.2717
29.976166 1407.5648 1357.7052
-1231.5203 1435.0403 2525.9634
518.8855 1421.6473 2136.283
-71.358978 1457.8717 3083.0952
-1028.9655 1460.4213 1784.0486
-299.14285 1408.3196 1305.5779
-729.5238 1465.7706 2808.3403
-483.422 1462.0415 2944.9333
-619.34607 1465.7706 2917.3777
449.11172 1471.3274 2997.9248
-993.9577 1433.7574 1486.3088
-1028.1201 1424.2125 1241.7449
-953.31152 1401.7714 1280.8182
-387.87964 1433.8685 1383.6783
631.66785 1479.7706 1499.9629
598.05115 1428.009 1969.5232
-650.52435 1465.7706 2874.2471
374.56961 1410.5115 2597.2888
146.67014 1479.7706 3106.6934
-171.95755 1468.7089 1378.2052
-834.76501 1471.7706 1201.9808
17.95343 1472.2761 2921.0747
-649.59088 1435.998 2918.6147
-1023.9628 1402.8292 1726.8931
-228.17998 1418.0577 1370.8081
449.34656 1411.9854 2908.4072
186.11154 1491.9479 2835.1045
-1016.4811 1440.6531 2860.5051
190.46857 1400.0481 3051.6672
691.01575 1452.6482 1381.4062
710.35767 1479.7706 1751.4711
479.76593 1443.5405 1915.1318
332.81598 1436.2429 2712.5591
-474.27261 1435.0624 2896.8179
-1077.7076 1463.426 2015.0852
-1005.0662 1423.8127 2943.3103
-301.59998 1489.2161 2928.676
485.29623 1469.7706 2519.9583
612.90979 1479.7706 1765.9603
631.46381 1479.7706 1387.0383
673.05786 1472.9954 1988.3977
-499.90585 1461.3145 2938.2727
-39.344391 1469.7706 2985.7495
-966.00861 1479.7706 1376.3918
-196.60403 1467.2456 1249.4781
481.0459 1479.7706 2892.5762
-479.11938 1479.7706 1221.8777
-966.47791 1426.3667 2474.4939
-993.97614 1403.3275 2512.0654
552.12366 1454.4512 2259.498
-799.09998 1409.2883 2967.8323
561.69238 1424.6564 2250.2231
-649.93042 1479.7706 1225.1331
-1125.3622 1466.5798 2367.1035
-19.00296 1404.575 3018.4902
66.989166 1426.3297 3105.0073
-949.91309 1412.2598 2515.1465
-714.22162 1430.5717 1469.3485
-1107.4406 1408.8339 1793.6937
-418.35385 1462.3698 2955.2393
-1278.5963 1432.8547 2863.4617
-716.65137 1475.8263 2913.7717
-733.03558 1437.0791 1163.9585
-1103.8994 1420.5614 2257.1624
-967.97046 1464.09 1321.8254
677.10944 1479.7706 1603.127
-957.55457 1452.0909 2493.5039
610.05603 1479.7706 2145.1638
521.86523 1469.7706 2287.4907
-1024.2897 1465.7706 1982.137
-672.97186 1465.7706 2817.51
406.68124 1467.2085 3090.209
-35.813187 1435.1454 1355.3849
-1065.9905 1401.4122 1992.2458
-614.37854 1442.6526 2920.1421
-1120.7883 1485.4561 2713.2173
-58.581284 1429.8223 1343.6791
-167.7363 1465.7706 1371.5378
570.25793 1466.2709 2653.8677
366.04987 1468.53 1685.8422
645.22632 1457.2778 2183.0674
-1261.2499 1407.0123 2713.6685
-1056.6195 1479.7706 1638.7665
-926.71057 1414.7015 1643.5659
-1009.6039 1431.5276 2356.3179
539.42688 1469.7706 2044.7515
174.08188 1441.2983 1388.629
-1126.6044 1457.0308 1863.5503
-1057.2853 1465.7706 2157.897
-637.80371 1458.9617 1421.8776
-568.59381 1450.5309 1436.6949
481.09225 1471.7706 2956.813
-43.141083 1496.5193 2969.3442
389.21875 1436.7684 1650.4425
407.22638 1479.7706 1456.1458
532.42737 1405.4771 1870.6207
326.03961 1436.0027 1577.2642
443.21017 1474.5278 3071.4482
449.65338 1429.0154 2957.6096
345.6062 1451.6266 1415.7958
507.61224 1487.8319 1655.6693
-800.43188 1434.896 1535.4072
-1002.9047 1471.7706 1346.2034
48.377319 1464.6694 3110.0151
-1051.8491 1483.8763 1934.6093
-4.7388306 1486.8042 2886.532
632.92255 1493.1525 1815.665
-831.01599 1453.9003 2677.532
-265.99548 1465.7706 2937.9788
-373.29541 1476.1738 1339.934
297.40207 1492.5071 2871.9585
575.16272 1441.8529 2625.4319
692.22601 1496.3267 1389.6978
-1014.5134 1471.7706 1376.7272
532.80444 1449.9739 2381.4749
726.4278 1423.6467 1670.3815
565.64429 1423.2996 2148.5625
-119.79512 1469.7706 1381.1858
-1089.2472 1499.7843 2335.2275
-799.44604 1453.5291 1531.9552
-1056.3491 1471.8826 1916.0483
-322.83246 1483.2174 2927.457
-713.75452 1493.7633 1167.0123
-873.31244 1479.7706 2917.603
-1125.0299 1471.7706 2164.8416
684.14624 1471.7706 1728.1768
-1023.5059 1447.1366 1191.3832
532.08813 1416.7041 2846.2542
457.53473 1416.9086 2856.7092
607.69812 1433.3401 1908.615
477.11475 1439.6132 1907.2454
400.41504 1479.7706 3019.0396
-655.67529 1479.6389 1191.5693
688.03918 1479.7706 1733.8976
549.2215 1426.1727 2789.218
-777.37207 1495.5032 2734.2158
-816.08398 1441.9047 2900.3447
637.30676 1411.8918 1772.8129
-1054.4233 1479.7706 2905.4629
-877.82776 1425.7107 2686.699
-986.06653 1469.7706 1651.5316
756.57056 1462.0641 1406.4868
-1076.7305 1471.7706 1928.4844
-682.86823 1469.7706 2896.5032
-470.23041 1454.9353 1398.7281
-480.71887 1461.9586 3018.259
-131.73431 1444.9076 1267.295
-1075.86 1471.7706 1793.1036
-167.64307 1427.1344 1338.5549
503.64218 1449.7972 2288.0088
515.94659 1416.6704 2139.5278
-653.09937 1420.1907 2918.0591
-708.84082 1411.252 2982.1279
424.23898 1485.694 2596.9395
598.3338 1453.1202 2018.8783
-1088.3586 1422.4211 2159.0422
-1166.0721 1471.7706 2504.4092
-908.5177 1465.7706 1691.4658
33.540588 1479.7706 1332.6001
163.79639 1479.7706 3107.0452
703.16748 1471.7706 1583.0491
579.93054 1498.7263 2259.9597
607.87531 1479.7706 1399.26
482.87109 1400.3728 1925.0087
-1139.9333 1482.7109 2750.0435
572.36212 1456.394 2591.9744
-1262.8945 1413.2736 2775.1921
-987.00171 1436.103 1873.9514
451.46567 1417.4205 2467.5554
-782.84381 1421.538 2889.3577
-373.69986 1476.885 2969.3276
245.43292 1453.9224 1485.467
638.86377 1475.7977 2186.9404
54.21434 1465.7706 1377.5369
-1108.5637 1498.0066 2189.9314
-271.09097 1403.5077 3059.5605
-583.0163 1456.6359 1439.8317
-615.6167 1465.7706 2892.228
63.621078 1489.618 1399.1866
555.60602 1412.328 2237.5115
70.775269 1479.7706 1309.923
-914.44128 1460.303 2644.6531
362.3591 1483.6825 3159.8892
-565.89771 1445.4009 1435.4729
-1114.1343 1469.7706 2400.1213
538.11377 1487.3136 2859.3494
454.84244 1405.6635 3073.2908
629.86182 1479.7706 2151.8909
155.72723 1479.7706 3043.8682
596.3042 1452.1917 1954.9834
549.89343 1471.7706 2486.6746
354.94205 1422.6096 2628.708
-870.83569 1475.6802 1605.4132
437.87527 1407.781 3171.8499
566.78613 1425.5759 2627.1799
-1030.3147 1479.1329 2427.022
423.33188 1473.3228 1775.5544
-832.54456 1462.9258 1624.2395
630.65942 1471.7706 1897.5801
-105.7395 1455.2384 2911.2988
316.32062 1429.9077 1403.0577
524.60388 1496.7347 2378.2451
-1256.2084 1429.2263 2802.2869
-109.40694 1490.1329 1344.2823
559.63824 1482.4281 1498.3462
630.54071 1464.2333 2275.3203
-1047.3489 1428.5117 1363.1506
461.85687 1462.2363 1762.7367
571.08057 1469.7706 1941.7527
-687.88562 1423.9087 2802.6011
575.48279 1471.7706 2428.9932
48.169647 1426.843 2909.4944
-761.52374 1408.2778 2754.748
96.594299 1432.1865 3044.8987
-33.043274 1479.7706 3059.9641
-1177.1925 1479.7706 2665.6797
598.40826 1479.7706 1599.9895
-1235.1294 1429.0211 2548.75
29.144562 1440.1144 3034.2158
601.44379 1479.7706 1657.7235
-1042.1177 1449.1312 1841.5186
478.01962 1408.8726 2778.5122
-1072.5648 1496.7228 1522.3582
-42.159897 1402.6041 1354.3796
751.38568 1493.6749 1399.0677
680.76904 1408.9652 1498.403
546.83521 1469.7706 2255.8599
-990.14368 1475.8956 1476.4429
491.54886 1437.0834 2693.0918
505.01019 1470.0188 1371.4138
-999.98535 1487.9138 1123.39
505.9639 1412.6804 2025.233
569.24939 1441.621 2611.6277
-1065.5422 1469.7706 2138.3545
-957.12732 1431.7539 1805.3888
270.12909 1478.0449 3135.9609
-1181.5692 1406.7638 2261.7241
4.313446 1413.9348 3007.8354
-857.66467 1496.2594 2711.8525
-796.96362 1479.7706 1155.0521
-805.48505 1497.3489 1537.0658
-955.61993 1436.5525 1223.5725
-1009.9545 1439.042 1166.0651
339.90768 1432.8384 2647.5769
388.40393 1468.9453 1412.4285
-43.976685 1465.4077 3022.9641
-137.33182 1465.7706 2986.3721
27.629013 1413.1404 1365.4331
-840.03076 1484.5759 2727.3325
560.83167 1469.7706 1988.96
-613.3808 1468.288 1457.874
-826.13336 1467.2118 2686.9954
-1135.8239 1479.7706 2592.1016
443.36752 1471.7706 1403.5619
-77.679688 1407.4889 3090.1938
-977.479 1423.1366 2547.8464
225.16666 1437.7091 2759.9812
-434.56165 1476.1201 2958.7478
690.2561 1471.7706 1510.5393
699.95721 1449.8011 1786.3707
425.35645 1450.1016 1704.7032
7.8913269 1446.5808 3010.8154
337.36649 1430.1821 3147.8311
-1090.4043 1428.1281 1634.9915
446.30902 1467.9332 1351.4159
471.47565 1479.7706 3049.4956
-721.22461 1463.7483 1474.1785
-525.7356 1454.4618 2883.3721
525.42468 1460.0071 1436.1765
512.71448 1430.4989 2508.3176
-512.56909 1469.7706 1357.6924
-330.91418 1472.743 2926.6887
198.1207 1479.7706 3077.5894
-483.35434 1474.5471 1207.9871
-693.29657 1474.2963 1247.0209
-298.56055 1424.0568 2974.2126
625.64056 1447.1392 1846.4702
-28.737732 1436.4911 3089.8457
399.1683 1405.2648 2559.9302
137.41986 1486.7394 1433.2958
-1135.0886 1463.8342 2922.7068
137.79199 1471.7706 1339.3148
372.83981 1450.4628 2599.6196
-1077.371 1471.4637 1645.1207
-1041.0056 1469.7706 2066.5588
12.511398 1425.3009 1282.0416
-134.2569 1402.998 1339.793
-364.86642 1458.9753 1377.1775
-47.522461 1434.4401 3009.9233
-1164.1995 1426.9189 2100.916
148.65227 1421.608 1311.7039
-476.13303 1479.7706 2987.0405
377.48843 1460.8507 3154.1855
-966.13306 1445.8152 1824.7302
580.3476 1491.0714 1498.9247
-451.22412 1476.1984 2903.1003
533.24432 1409.4545 2890.094
-8.629364 1465.7706 2948.4932
-100.55916 1469.7706 1360.1827
592.90332 1443.5365 2002.0254
-1029.4022 1465.0424 1708.4796
9.8269958 1436.2859 2973.0242
553.60437 1402.9778 2710.406
647.58026 1479.7706 1942.4222
-806.60455 1447.9011 1152.3064
-1036.4644 1464.3707 2105.699
-109.40676 1471.3485 1344.2787
157.29846 1426.707 1491.7134
125.10312 1401.6871 1475.7102
506.90167 1434.411 3005.2754
-1185.4613 1471.7706 2351.6526
481.0448 1471.7706 2934.0037
623.2594 1468.1477 2261.1091
-555.66748 1475.7113 3008.8267
590.03052 1456.998 2531.5603
402.3313 1479.7706 1495.6681
719.30548 1442.6626 1664.2106
-1139.0994 1471.7706 2156.0068
735.68683 1425.787 1388.4814
-946.22046 1463.5726 1236.0474
-891.83789 1402.896 2602.8511
607.29669 1451.3062 1911.1493
512.90393 1465.7706 2386.5171
-754.04065 1466.675 1495.2308
571.56305 1479.7706 1700.901
-1174.3126 1455.2083 2164.7681
189.32614 1453.7108 1391.0435
513.36493 1469.2185 3008.9612
-695.92664 1469.7706 2824.5969
629.09375 1459.2761 1773.5283
-190.86923 1402.4396 2991.2693
-1138.676 1479.7706 2556.3516
133.07689 1479.7426 1317.1572
-193.21919 1458.3031 1330.4542
-1099.4747 1479.7706 2879.6033
516.03906 1492.6909 2079.7197
-148.39998 1428.5299 1256.5558
-516.93683 1423.0526 2883.2683
-195.19452 1450.2946 1249.1442
504.21051 1448.4774 3124.5457
443.03391 1479.7706 2985.3608
-1253.1968 1430.0482 2713.9624
-942.59229 1448.6581 2601.6958
-270.33295 1448.9479 2929.6873
-1213.1591 1479.7706 2781.9673
-998.86243 1479.7706 1160.0005
719.43616 1469.0571 1708.4043
568.25525 1451.6886 2157.6472
-847.71411 1466.9088 2719.5818
514.58142 1479.7706 2866.1294
-858.36292 1479.7706 1385.0465
-727.18732 1497.3846 1478.2909
483.99332 1483.7618 2381.5227
79.416107 1459.5005 3115.0754
-1173.3406 1479.7706 2775.5024
-1032.2843 1490.4023 2239.9644
-1257.3417 1456.1283 2740.1328
-644.5686 1482.4926 2825.4624
580.14417 1402.6238 2082.5837
-160.99258 1444.2279 1254.5613
249.79732 1404.4387 1457.9114
-569.19427 1465.7706 2924.8701
232.54541 1424.8473 3058.3315
463.80035 1465.1526 2818.5488
660.20007 1479.7706 1414.5037
-1212.0747 1446.5111 2403.1885
555.30896 1402.6573 2750.7832
-1008.3784 1459.5032 1577.3574
-209.0536 1468.3846 1327.2064
-639.4516 1491.5338 1178.7808
-1040.2012 1461.2902 2174.4397
-1139.1172 1479.7706 2536.2021
8.4847412 1454.8859 2981.499
-12.442017 1444.4009 1363.1365
-1247.0396 1425.8904 2810.1174
-601.77881 1469.7706 2893.7222
-749.90924 1465.7706 2794.1199
-1154.4755 1457.8027 2550.9175
-930.55469 1411.4941 1222.7375
-1039.4561 1404.7372 1824.7136
-993.82739 1478.5042 2934.8572
484.75616 1429.2164 2378.8872
457.25208 1438.8711 1845.6156
468.81702 1424.7511 2425.6592
-993.57391 1461.5941 2872.2332
-555.00134 1422.4255 2933.5964
-1186.578 1471.7706 2351.9221
-703.09595 1414.1659 1507.7611
725.36273 1452.0914 1625.9664
-1106.988 1402.0546 2251.0938
525.13745 1428.4584 2429.8826
-192.61368 1420.9296 3063.8904
-1155.9229 1479.7706 2156.1536
-442.31616 1469.7706 1326.8951
227.4492 1465.7706 1445.7054
498.98657 1410.9445 2569.4229
-1061.9412 1471.7706 1595.5767
255.3008 1459.87 1448.7335
447.93243 1444.444 1737.5837
-291.11493 1424.8639 2983.4917
575.53064 1422.3204 2086.1423
-243.62003 1471.4644 1307.8303
521.57764 1464.116 2452.3582
480.65048 1461.6344 2382.1406
-1081.5991 1458.6958 1579.3986
-848.35834 1478.8168 1215.8362
-1082.4434 1409.5306 2931.0549
-416.38217 1402.521 2955.5515
339.70718 1420.0553 1657.2001
659.9054 1469.1168 1585.3063
-958.95441 1425.6021 1265.3066
-1168.4043 1430.8867 2638.8608
-1073.7498 1442.0536 2924.332
-569.5719 1410.7393 2931.2886
-1199.0909 1431.1888 2811.3333
-114.51413 1472.1123 2912.9553
-1045.8928 1469.7706 1942.7911
538.00537 1477.3466 2809.9475
-166.24313 1495.0236 2992.4836
212.53177 1412.423 2769.7402
609.48602 1499.4133 1795.8866
624.75452 1449.4502 1387.1111
703.06494 1479.7706 1406.8892
-1164.3485 1479.7706 2809.8489
140.69565 1464.3422 1383.3412
405.09796 1415.1465 1344.2212
-995.94983 1417.2096 2936.6543
289.41599 1479.7706 3142.9363
-967.16077 1454.0376 1317.1198
-837.60815 1473.9225 2674.9299
342.47446 1484.7435 3029.3477
136.92604 1462.6617 1374.6444
-1097.7749 1437.9889 2847.6294
325.38004 1479.7706 2878.0532
-1155.7694 1406.451 2507.948
-1108.8923 1465.6537 2209.5825
-957.52173 1421.2167 1307.4009
434.95648 1417.8409 1720.1979
175.66656 1479.7706 3000.0974
-1024.7124 1411.47 2306.5627
-744.97711 1419.1078 2761.2649
-771.87097 1435.0961 2845.6477
-1123.9995 1462.9735 1847.1033
406.74109 1444.1201 2553.1758
421.05728 1483.2688 2522.2498
527.526 1461.306 2389.2322
-1099.2346 1469.7706 2210.1101
474.32565 1469.7706 2484.0901
-1036.61 1465.7706 2325.5818
371.12265 1479.7706 1367.0756
-744.24634 1475.9675 2809.6355
-1163.6661 1436.1947 2557.8059
-1027.7151 1474.3645 1866.1832
190.35556 1469.0803 1391.2065
-969.94897 1441.7942 1832.9255
88.45401 1422.3203 2891.7568
-234.52649 1404.2683 2992.4543
379.67328 1421.9635 2589.6536
-566.80237 1444.1652 3004.6248
-999.64355 1491.5619 2389.6638
-1103.8964 1479.7706 1920.9058
-41.14444 1457.6167 3023.083
388.58377 1485.4945 2581.7271
-1100.2079 1471.2858 2121.5859
-1104.8447 1479.7706 2116.8784
-1072.1648 1471.7218 1930.5153
-283.1539 1469.7706 1361.1285
-1158.323 1435.4725 2846.1394
-1067.2434 1463.9187 2025.7258
278.05688 1442.1617 1396.9973
-1096.9009 1463.068 1676.0093
653.24194 1479.7706 1566.1028
575.82373 1423.1553 2109.8616
-170.05939 1418.3954 2990.5154
698.79333 1423.4655 1844.8584
276.1221 1479.7706 2934.7241
186.18658 1469.7706 1501.1552
141.51041 1433.608 2814.5901
435.6951 1422.8716 3076.6365
-338.25867 1493.4363 1335.7816
-884.08948 1450.5184 2682.3906
-291.013 1490.0635 2926.1692
100.43152 1400.7767 3045.5066
224.32481 1469.7706 1531.4781
256.90863 1417.4077 1570.8123
-364.82184 1467.0089 2972.5537
460.1568 1438.3134 1433.9388
257.87909 1415.8638 1406.885
713.82092 1479.0098 1678.4036
499.20798 1422.6183 3104.991
42.466721 1483.5645 1434.7506
299.69885 1461.9161 1612.0388
512.80219 1463.5641 2482.1943
432.28177 1479.7706 1433.9819
761.77142 1408.6477 1447.2306
-374.16299 1426.2532 1305.8455
-923.36621 1490.8541 2561.1157
434.90805 1435.9734 3076.512
-972.17047 1423.9662 1837.6965
465.74054 1438.6826 2856.0393
-6.4501038 1454.2776 3016.4285
-1219.6619 1444.6427 2502.2314
-1000.593 1407.0304 1903.5674
-386.90997 1468.2738 1228.4711
-183.93437 1419.8436 1376.9106
-46.697174 1444.7467 3087.0012
-1218.8848 1449.5859 2497.3257
134.4765 1451.6545 2865.8823
445.70999 1444.6439 2931.3677
-386.67154 1448.8348 3041.2544
-681.3866 1481.8578 1496.9669
-1119.6581 1420.9696 2917.061
-1123.0085 1471.7706 2171.49
505.6857 1457.5836 2552.696
405.37823 1406.699 1425.2627
-250.04803 1479.7706 3007.5627
55.75499 1473.2974 1437.2903
490.71344 1466.8042 3158.6235
-1028.9093 1471.7706 1564.8854
-1048.0426 1432.8198 1878.9271
471.97629 1465.7706 2539.5127
438.34833 1470.5764 1361.7006
518.88745 1486.8981 2136.3943
326.61151 1405.4629 3073.23
507.00134 1470.0406 2553.7131
615.81445 1479.7706 1992.6477
498.32922 1433.2709 3161.679
356.79642 1427.0223 3150.9084
395.22046 1493.8098 2641.8186
482.59058 1421.6826 1429.3923
-138.44574 1431.7362 1382.6852
518.4491 1461.1868 2523.2502
-1045.7843 1465.7706 2231.9346
-956.88232 1479.7706 1515.9248
-1040.1627 1416.9781 2176.637
481.67352 1465.7706 2487.6252
630.36768 1460.504 2225.7419
480.0488 1464.9104 1915.9734
527.97009 1465.7706 2230.6653
-1023.2113 1479.7706 1453.229
436.05911 1403.5303 2992.301
-971.70245 1427.2207 1396.9343
-1284.3901 1472.1121 2859.77
638.17737 1442.8687 2176.4333
549.20782 1482.9702 2264.0293
710.89459 1419.5421 1717.3148
-319.57349 1422.0306 1375.4502
347.246 1447.0201 2651.2629
600.07043 1403.2729 1956.7739
-388.17487 1419.2593 1303.6262
377.25616 1469.7706 2647.9004
-811.32483 1485.7449 1151.5587
-871.91394 1443.6217 1648.1948
-977.06494 1478.1798 1370.251
-971.03076 1465.7706 1787.2888
-1242.7301 1420.59 2647.8789
300.06088 1452.3053 1408.5822
-784.53192 1498.8772 1576.3416
-938.79492 1479.7706 1293.5186
-81.012581 1465.7706 1374.4358
-1266.2103 1445.8065 2801.4609
-698.34497 1444.7659 1456.759
515.40094 1479.7706 1390.4868
-1.8300171 1479.7706 1318.9552
465.76523 1499.7262 1774.236
-1030.9543 1465.7706 2335.7773
7.7793274 1465.2892 2985.9526
-399.77725 1439.8352 1301.7886
-889.21954 1471.5356 2895.665
-1012.2226 1471.5833 1141.3721
-455.15411 1420.6018 1216.0703
-1145.0682 1433.5796 2031.266
365.62628 1450.8846 3079.4094
-555.4696 1418.005 2868.6541
333.24777 1440.2117 2655.4983
-892.70441 1472.4424 2882.8252
72.825516 1433.5607 1364.4918
-1037.291 1461.0785 2168.2793
26.245316 1436.4659 1369.2639
-52.292862 1470.0439 1401.6652
-779.51862 1412.6899 2893.9331
257.14496 1405.2073 1320.7877
-1201.8379 1442.345 2798.8125
-26.529175 1465.7706 2921.0764
505.41852 1468.7794 2559.5989
-1184.3429 1415.0337 2228.0972
-1071.8055 1471.7706 2896.3206
-1269.6493 1437.7115 2802.5925
-923.34619 1476.9806 1133.8163
-34.991089 1465.7706 2999.5984
667.00201 1442.23 1534.1848
500.96088 1410.6259 2302.5444
563.05481 1430.9781 2701.8782
-83.761322 1458.3263 1339.6909
-40.679871 1481.6437 2898.0498
-13.631699 1450.8113 1362.948
-695.73376 1475.4452 2916.6987
-405.53067 1400.8867 1383.7695
-135.49808 1463.0535 1266.6989
185.27145 1479.7706 3076.3491
-993.05505 1479.7706 1134.4088
-1148.9585 1471.7706 2189.4299
473.46823 1460.2269 2807.2485
-968.2204 1479.7706 1284.7336
-1039.5973 1462.027 2929.7412
-993.91492 1469.7706 1749.5857
-476.88034 1402.5748 2954.0693
-990.30255 1414.4026 1129.59
-1098.5076 1465.2073 2197.5498
244.92575 1479.7706 3131.803
463.46158 1434.9263 2669.6697
-1130.65 1439.2084 1940.233
-875.70795 1403.8351 1149.4612
-910.0282 1454.5876 1216.9229
659.51917 1471.5352 1676.1421
477.09106 1465.3291 2734.813
-1014.4031 1467.5111 1666.535
-154.43439 1469.7706 2941.7725
-472.44891 1450.4546 1286.2285
259.29846 1488.0315 2781.1514
509.07547 1438.2919 2253.468
-687.32178 1459.4246 1497.1783
414.46603 1475.4684 1351.1205
-1077.0527 1472.368 2202.2734
-576.57098 1465.7706 2914.4858
-49.958191 1451.0317 3021.687
-1086.7443 1432.7653 1611.8831
496.57919 1406.6057 1841.0438
-1021.8008 1479.7706 1350.8669
282.57053 1471.7706 1366.2446
-115.45282 1443.8881 3003.2139
-1209.9254 1462.5939 2440.7583
573.3844 1464.454 2125.2632
-799.95923 1403.715 2894.7988
-987.49048 1479.7706 1242.98
-899.42737 1411.2046 1145.7043
-693.86896 1479.7706 2942.1816
360.15485 1449.3218 2616.7119
-983.69751 1497.9727 1547.729
55.515564 1437.0542 2862.9604
-246.21155 1471.3564 2926.5952
-195.30099 1404.9362 2990.5674
381.26959 1479.7706 1473.3689
295.32568 1405.0515 1547.3606
329.6463 1402.2052 1640.6071
-753.5423 1469.7706 2807.8953
-866.58765 1492.7772 2867.9905
130.44418 1459.0675 3115.0576
-638.06866 1452.8909 2993.3372
738.11816 1471.6913 1498.2129
582.93225 1469.7706 2040.4174
490.7388 1465.4014 3118.1907
-1031.8605 1479.7706 1288.3275
156.8365 1478.5282 1315.1813
490.74838 1459.6472 2358.1851
-875.54675 1488.1611 2689.3962
239.08844 1450.1694 1551.0944
-580.24707 1464.9521 2929.5979
-114.32352 1464.6582 2999.343
-45.362091 1463.9918 1272.9108
677.97284 1441.9095 1925.1746
-614.22595 1406.1801 1190.8759
-962.67468 1444.03 1228.8337
498.10919 1451.9407 3111.9285
-642.12024 1487.9094 2873.5527
-294.7359 1453.4608 1233.3784
-1168.1782 1471.7706 2861.0962
-1142.9336 1479.7706 2340.6667
-1033.8054 1469.7706 2351.707
132.07825 1425.2194 2823.6345
-847.82465 1429.1298 1153.8774
-867.40405 1441.1544 1648.9092
-804.69708 1446.0457 1536.3955
-675.11987 1406.6234 2922.6711
-632.22766 1406.9987 1260.9221
-383.53732 1418.3068 1382.9227
-500.97769 1465.7706 2920.7129
-370.09595 1465.7706 1313.1149
370.66385 1479.7706 2883.54
557.1687 1481.7477 2145.6614
9.044342 1465.7706 2881.8452
-1073.3611 1460.8755 1578.5249
557.99377 1494.1931 2193.627
741.33923 1408.218 1397.4766
-1063.3521 1479.7706 1481.0049
90.545929 1471.7706 1318.1123
-1003.7476 1479.7706 1216.2533
-974.55627 1479.1376 1338.223
408.47247 1424.0555 2550.2285
-1008.2045 1412.1409 1627.3992
-1097.3101 1465.7706 2230.9404
-530.79517 1417.4928 1195.9902
282.5275 1444.4939 1538.7629
-323.08972 1432.3137 2970.3276
-618.24158 1413.0876 1255.0376
420.17545 1495.1372 2606.6658
-1177.4651 1439.8461 2644.9287
-902.96936 1496.314 2587.1758
425.13531 1479.7706 1403.9572
-683.09833 1451.536 1494.345
-1158.9114 1408.6122 2527.7852
-1241.0365 1479.7706 2724.5635
-1013.8943 1433.4116 1688.8926
558.83093 1416.476 2728.5466
42.645889 1457.7031 1371.8615
-902.84875 1497.5803 1643.4272
518.56799 1455.0427 2445.7905
-713.1012 1479.7246 1232.2075
539.36218 1471.7706 2675.1492
-271.22388 1478.1445 1370.1218
-1128.449 1422.0172 1875.1967
-121.74887 1426.7308 3075.1143
-780.36102 1471.7706 2922.8801
544.71826 1409.3943 2306.2539
-1020.7776 1479.7706 1348.7257
441.1709 1410.2819 1810.1699
288.04224 1455.6517 1595.7008
-397.60339 1479.7706 1245.5923
568.15302 1432.7435 2158.2927
-967.07312 1479.7706 2900.78
-1256.6901 1481.1923 2684.8789
362.28864 1479.7706 3138.4839
456.03552 1496.5035 1756.3492
-509.65076 1465.7706 1312.2544
-335.04858 1453.4447 2968.4333
-1130.8779 1444.8091 1941.6718
-1036.3162 1445.8999 2194.2358
-320.43253 1471.7706 3002.0725
-1014.2433 1419.175 1665.5267
597.39594 1479.7706 2223.793
318.58658 1483.248 3152.9563
-897.849 1479.7706 2936.9153
232.05818 1461.3114 1549.578
-1021.3218 1431.4493 1710.2179
-816.33173 1479.7706 1185.835
-1020.9484 1448.5396 1214.5667
498.13663 1448.9233 2600.3589
-797.7439 1461.4773 1588.59
-151.6022 1441.228 1341.0956
189.79337 1496.9136 2950.1409
183.18729 1454.8777 3131.5112
397.41873 1437.5287 1737.2578
392.30142 1479.7706 2991.8689
-492.4696 1434.0297 2891.511
557.21643 1469.7706 2069.2737
-765.75317 1476.9795 2795.9961
-888.4801 1403.9425 2674.1018
31.458984 1462.7809 2869.718
-1199.9209 1420.623 2326.4521
499.49518 1476.2488 1842.7545
327.99829 1462.8599 1582.2922
-1040.5872 1450.639 2139.7429
-53.079147 1467.3889 1352.0699
535.02264 1438.6207 2367.4697
261.97888 1498.0358 2817.4651
-1047.9252 1478.9147 1436.549
-113.18533 1437.1752 3076.4705
-1039.7974 1469.7706 2044.094
-1039.8944 1438.9752 1367.2249
502.49606 1422.1193 3131.3486
-1010.647 1477.7206 1936.2294
-1137.3569 1471.7706 2323.3992
33.363098 1414.0686 2913.1833
-974.07294 1497.468 2720.0498
-949.18097 1494.7706 1654.2075
-386.49023 1410.8218 2919.542
-1069.7502 1465.7706 2254.0891
-1068.0487 1479.5117 1585.6765
-1033.8883 1479.7706 1679.5626
519.95044 1465.7706 1901.321
558.85327 1469.7706 1892.7645
-892.78882 1461.1626 2961.0933
646.21619 1439.6664 1665.4214
283.72891 1444.5392 2760.394
-897.81854 1404.6025 1637.0046
-248.52591 1423.9791 2982.1372
-109.08067 1446.0358 1347.8303
-997.68774 1450.0857 1560.9987
-400.45422 1436.7886 2958.0742
-1075.7059 1479.7706 2656.7375
-1105.2737 1479.7706 2592.7668
127.98807 1427.4093 2826.0923
-774.33252 1449.5228 2835.6194
-967.0155 1490.1296 1126.8998
507.19226 1480.3248 2285.3257
579.23462 1405.5072 2548.5833
-1014.5532 1401.6193 2431.5254
227.91397 1438.3225 1397.1552
-843.42029 1426.6625 2668.2441
-1034.9944 1405.5148 2212.8369
237.92606 1465.7706 1485.007
-1034.5029 1428.3979 1742.301
459.56769 1455.0226 2843.8735
-80.580811 1482.5724 1350.2185
374.76508 1432.8346 1347.5166
-300.39606 1456.1371 1305.3794
185.46117 1457.1884 1510.5087
489.76538 1439.7123 2653.2126
131.70871 1439.8262 3123.3579
247.01401 1445.7651 1501.0542
-477.24561 1469.7706 1393.9351
710.26251 1405.9143 1772.4451
-1180.9839 1463.8248 2846.1338
-828.80365 1414.7345 2963.1277
-1221.502 1449.9709 2513.8491
247.31641 1479.7706 3064.6304
-301.09583 1471.4097 2968.7957
723.14911 1471.0486 1609.4542
-870.64435 1471.7706 1189.8705
-1140.1798 1437.3188 2460.6584
